# .PCD v.7 - Point Cloud Data file format
VERSION.7
FIELDS x y z rgb
SIZE 4 4 4 4
TYPE F F F F
COUNT 1 1 1 1
WIDTH 709
HEIGHT 1
VIEWPOINT = 0 0 0 1 0 0 0
POINTS 709
DATA ascii
  3.45353581e-02  -2.77487375e-01   6.12328944e-01   2.43280300e+06
  7.94630105e-02  -2.83278423e-01   5.93871331e-01   4.66588700e+06
 -4.86332051e-02  -3.28603097e-01   6.67942833e-01   2.10719300e+06
 -3.98131516e-02  -2.44055554e-02   5.31504901e-01   6.83782400e+06
 -2.95709632e-02   8.16776029e-04   5.22920534e-01   5.84990000e+06
 -1.65935331e-02   6.30841352e-02   5.84576549e-01   1.43325590e+07
 -6.43341728e-02   1.48256092e-01   6.34916596e-01   4.59522000e+05
  7.70916191e-02  -2.77343585e-01   6.21248421e-01   4.92907300e+06
 -5.98061862e-02  -2.47437384e-02   5.31927679e-01   5.19274900e+06
 -6.67960649e-03  -2.81171032e-01   5.97334930e-01   1.45317550e+07
 -1.23834214e-02   5.95534291e-02   5.82812289e-01   1.44538800e+06
  1.55066481e-01  -2.38651429e-01   7.15418809e-01   1.47951760e+07
 -4.19437305e-02  -1.27366384e-02   5.32535562e-01   4.00744400e+06
 -9.13135140e-02   2.07638368e-01   6.67734290e-01   1.17705150e+07
 -6.39693541e-02   1.29863374e-01   6.24402886e-01   4.59520000e+05
  6.42164256e-02  -2.87874855e-01   5.69528641e-01   7.88227000e+05
 -8.88403043e-02   6.11678645e-02   5.85909262e-01   1.13094400e+07
  9.21919980e-02  -2.84584787e-01   5.96048155e-01   3.41787800e+06
 -5.75851343e-02  -3.31788696e-01   6.55831521e-01   1.77822600e+06
 -2.56898090e-02   5.08473007e-03   5.19829673e-01   5.58724000e+06
 -1.37109782e-01  -7.98167749e-02   5.19036021e-01   1.19064750e+07
 -4.89081283e-02   2.74944067e-01   6.91440474e-01   5.98021300e+06
 -2.01492581e-02   5.55046862e-02   5.79553603e-01   1.59103000e+07
 -5.60658427e-02   9.25898632e-03   5.52247144e-01   1.60457460e+07
 -4.17993538e-02  -2.87090133e-01   5.93408653e-01   1.77306200e+06
  4.91593561e-02  -2.81275731e-01   5.90013411e-01   2.82575200e+06
 -4.20749965e-02  -2.87339079e-01   5.93630044e-01   2.89076700e+06
 -6.21563497e-02   1.71434795e-01   6.27995151e-01   8.54278000e+05
 -3.47212254e-02   9.73964810e-02   6.03041399e-01   1.47946620e+07
  7.67065224e-02  -2.81216790e-01   6.00040231e-01   1.12441580e+07
 -3.46393688e-02  -2.85465332e-01   5.95691196e-01   1.42711560e+07
 -3.26596463e-02   5.71371734e-02   5.80256778e-01   1.55828790e+07
 -6.88411558e-02  -2.93030082e-01   6.00645252e-01   4.20405300e+06
 -4.00504056e-02  -2.86449916e-01   5.93340748e-01   2.82575000e+06
 -4.25561698e-02  -2.84601716e-01   6.18382082e-01   2.56542600e+06
 -9.93915129e-02   5.95186554e-02   5.86168181e-01   1.65731210e+07
  1.25911505e-01  -2.76675967e-01   6.51079758e-01   3.08892400e+06
 -1.09229937e-01   5.01395202e-02   5.81487004e-01   6.17757400e+06
  1.63223774e-02  -2.80676294e-01   5.91235475e-01   1.48620080e+07
 -1.36380851e-01  -7.96245951e-02   5.18942288e-01   1.26944500e+07
 -7.82135384e-02   6.28434089e-02   5.85231905e-01   1.24937100e+07
 -9.88488343e-02   5.17527256e-02   5.81431168e-01   6.37443600e+06
 -6.39311180e-02   1.32273977e-01   6.25791717e-01   1.57747600e+06
 -5.61929937e-02   1.19009064e-02   5.53394547e-01   1.67681860e+07
-0.08028892  0.17170323  0.64753812  0.        
  1.54462063e-01  -2.38223416e-01   7.15223685e-01   1.47951760e+07
 -6.42258467e-02   1.48514575e-01   6.35295168e-01   1.11770500e+06
  8.99755163e-02  -2.81813955e-01   6.04564892e-01   1.49935940e+07
 -7.42674309e-02   5.35209507e-02   5.83479205e-01   1.53191800e+07
 -1.10226148e-01  -4.69462459e-02   5.25954000e-01   1.03862770e+07
 -1.08390946e-01  -1.05198408e-01   5.00832883e-01   1.47964690e+07
 -7.87919165e-02   1.30693156e-01   6.25972117e-01   6.55360000e+04
-0.07618397  0.17151199  0.64762404  0.        
 -2.44302781e-02  -2.84322624e-01   5.91035985e-01   2.43099200e+06
 -6.50524088e-02  -7.38432445e-02   4.67924611e-01   1.49277940e+07
 -2.80122713e-02  -2.84549480e-01   5.93622468e-01   1.42703840e+07
  7.69883290e-02  -2.80979547e-01   6.01587595e-01   1.46635920e+07
 -2.00877285e-02   6.79195889e-02   5.87884156e-01   1.43338490e+07
 -7.12354917e-02   1.77572924e-01   6.50480279e-01   1.27576640e+07
 -1.05970546e-02  -2.81672180e-01   5.86465977e-01   1.50593640e+07
 -1.04158791e-01  -1.01574224e-01   4.90561819e-01   1.48620080e+07
 -7.95556189e-02   4.77199466e-03   5.56340886e-01   1.40714550e+07
  4.24685552e-02  -2.71932166e-01   6.38036008e-01   9.27400000e+06
  1.25903259e-01  -2.76659411e-01   6.51084091e-01   3.54819200e+06
 -1.65983554e-01   2.07890338e-01   7.00453346e-01   1.18427200e+06
 -1.00378174e-01  -5.18640216e-02   5.20462295e-01   2.10770400e+06
 -1.03999121e-01  -6.42902170e-02   5.11494873e-01   1.91032500e+06
 -3.15033885e-02  -3.27087323e-01   6.46514400e-01   4.46981200e+06
  8.80469762e-03  -2.74918359e-01   6.29082622e-01   2.23671300e+06
 -5.19196471e-02  -4.88719207e-02   4.84872470e-01   1.11819890e+07
 -1.38093000e-01  -3.60214390e-02   5.39102953e-01   1.31439240e+07
 -4.26007413e-02  -3.27652405e-01   6.63221618e-01   1.09848600e+07
  6.48672615e-02  -2.86200333e-01   5.77591204e-01   1.49961640e+07
  8.52780362e-02  -2.90039384e-01   5.73209095e-01   2.69211300e+06
 -9.45889996e-02  -2.63993706e-02   5.40797201e-01   1.47933730e+07
  5.48190471e-02  -2.87011213e-01   5.70225954e-01   3.08814600e+06
  6.66401343e-02  -2.81667508e-01   5.94859021e-01   1.45353560e+07
 -5.11605849e-02  -4.85149993e-02   4.84391184e-01   1.01298100e+07
 -1.28535153e-01  -3.85978288e-01   7.06359481e-01   9.80186900e+06
  8.94742893e-02  -2.81521679e-01   6.05365050e-01   1.47319650e+07
-0.0789054   0.14406032  0.6314933   0.        
  4.10581184e-03   6.75329786e-02   5.89098409e-01   1.45972800e+07
 -5.96526543e-02   1.57902020e-02   5.52237347e-01   1.17681720e+07
 -1.33948890e-03   6.69046335e-02   5.88949507e-01   1.45967620e+07
  8.56308312e-02  -2.81492835e-01   6.05250339e-01   1.46669420e+07
  2.07390747e-02  -2.80962107e-01   5.88536947e-01   2.82472300e+06
  4.63998623e-02  -2.75396141e-01   6.22840990e-01   1.71243300e+06
 -1.01019230e-01  -8.33526990e-02   5.09286970e-01   2.63044200e+06
  4.62245282e-02  -2.75127597e-01   6.23940449e-01   1.58136000e+06
  3.53444943e-02  -2.75360375e-01   6.23402080e-01   1.71243300e+06
  7.04561704e-02  -2.82598479e-01   5.91715062e-01   2.23361300e+06
 -9.91170059e-02   1.31491910e-01   6.24694833e-01   6.57930000e+04
  1.50343201e-01  -2.40492605e-01   7.09843514e-01   1.04543920e+07
 -7.74896258e-02   1.45196081e-02   5.58339695e-01   1.46617850e+07
 -1.05402355e-01   1.33288008e-01   6.25441157e-01   3.68157900e+06
 -2.73155275e-02   2.57619304e-01   6.98181724e-01   7.42868200e+06
 -9.23207202e-02  -3.31884430e-02   5.33373993e-01   2.56000000e+02
 -2.38175754e-02   2.52824665e-01   6.95911914e-01   1.28229300e+07
 -9.55407476e-02   6.53091064e-02   5.88729688e-01   1.52549510e+07
  4.24361788e-02  -2.72524473e-01   6.36383169e-01   5.39298100e+06
 -2.83217678e-02   5.78387327e-02   5.80746671e-01   1.30231180e+07
 -1.15106033e-01  -1.17655973e-01   4.96695869e-01   3.87637100e+06
 -1.16376595e-01   4.94152208e-02   5.81548073e-01   1.59123440e+07
  8.10412943e-03  -2.79100449e-01   6.04336141e-01   3.87689700e+06
  1.01500100e-01  -2.39873015e-01   6.87794555e-01   1.42690850e+07
 -1.42265895e-01  -4.76579312e-02   5.33242334e-01   1.38140200e+06
 -8.69264907e-02   1.65784540e-01   6.44047255e-01   1.11131000e+07
 -3.85897000e-02  -3.27839790e-01   6.51399069e-01   2.16885700e+06
  6.34351849e-04   1.92141072e-01   6.61921180e-01   2.03880700e+06
  1.31482781e-01  -2.97215521e-01   5.96737795e-01   2.89000500e+06
 -8.88606882e-02   6.13370808e-02   5.85786521e-01   1.13094400e+07
 -1.24513667e-01  -1.18450999e-01   4.99451423e-01   3.21973200e+06
 -7.14620622e-02   6.58655829e-02   5.87320753e-01   1.54500000e+07
  3.79185368e-02  -2.94020374e-01   5.75947116e-01   3.21639800e+06
  3.92147007e-02  -2.80952109e-01   5.88864992e-01   2.23438300e+06
 -4.90007697e-02  -4.34220291e-02   4.87678730e-01   1.71243300e+06
 -9.50317855e-02  -5.92618039e-02   5.13340122e-01   1.06558970e+07
 -8.39063126e-02   1.80170773e-01   6.52159231e-01   9.66918100e+06
 -1.26677364e-01   2.38854535e-01   6.81303535e-01   2.17116100e+06
  6.95726514e-03   1.97978714e-01   6.66348079e-01   2.56386800e+06
 -1.46144977e-02   3.84166766e-02   5.69785655e-01   1.49239260e+07
 -5.69965227e-03   3.28834429e-02   5.68453506e-01   1.16360770e+07
 -1.27298608e-01  -8.59605798e-02   5.16502143e-01   1.58110700e+06
 -9.27791806e-02   1.09866525e-02   5.58135616e-01   1.67034240e+07
  5.52544334e-02  -2.71367446e-01   6.40335663e-01   1.60452450e+07
  7.81071461e-05  -2.80447995e-01   5.99824828e-01   1.49280550e+07
  6.45263490e-03  -2.81337822e-01   5.88020703e-01   1.24851300e+06
 -6.58051717e-02  -3.34638661e-01   6.50394349e-01   3.28630100e+06
  4.02167254e-02  -2.80956727e-01   5.89244385e-01   2.03777400e+06
 -9.77733800e-02   1.08014463e-02   5.57178557e-01   1.49280530e+07
  1.03459926e-01  -2.40241564e-01   6.87655640e-01   1.48612300e+07
 -9.34653126e-02  -2.57720322e-02   5.37886033e-01   1.46628120e+07
 -6.57156236e-02  -3.33268148e-01   6.66206214e-01   2.36675600e+06
 -1.13386015e-01   5.93806582e-02   5.86550152e-01   1.50619330e+07
 -1.13446075e-01   5.15065622e-02   5.83141433e-01   1.67676670e+07
 -6.26852613e-02   2.46911301e-01   6.89265869e-01   1.07196090e+07
  1.17706226e-02  -2.80194663e-01   5.94488290e-01   2.82704000e+06
  2.36058605e-02  -2.77016988e-01   6.16525083e-01   1.71243300e+06
 -7.84142475e-02   6.29182777e-02   5.85150811e-01   1.26252960e+07
 -1.21354480e-01  -3.83317263e-01   7.03560838e-01   1.84402100e+06
 -1.12162827e-01   1.03047867e-01   6.07815255e-01   6.57920000e+04
 -1.12590096e-01   5.34132930e-02   5.83470290e-01   1.32796170e+07
 -3.61776159e-02   1.10860564e-01   6.12923036e-01   1.49326990e+07
 -4.41261358e-02   9.99782078e-03   5.51667984e-01   1.50583480e+07
  7.96294278e-02  -2.87140110e-01   5.80688108e-01   1.48632930e+07
  6.58546372e-04  -2.84675317e-01   5.66756752e-01   3.08737400e+06
 -8.85253856e-02   1.68062594e-01   6.46720068e-01   1.15050350e+07
 -1.52338669e-02   3.74338211e-02   5.69137695e-01   1.50578310e+07
  2.23413514e-02  -2.76066144e-01   6.22575431e-01   1.64715500e+06
 -9.83390461e-02  -2.34695520e-02   5.40332661e-01   1.45317410e+07
 -1.18429199e-01   6.29594041e-03   5.59136401e-01   1.51236240e+07
 -8.39942747e-02  -7.78286228e-02   5.08752402e-01   1.51556900e+06
  5.37836181e-02  -2.77869133e-01   6.09165485e-01   1.40719810e+07
 -1.14604621e-01  -1.16833057e-01   4.96929947e-01   2.89128100e+06
 -2.26348672e-02  -2.23332398e-01   5.38523165e-01   1.43384970e+07
 -8.29238151e-02   9.25981346e-03   5.55958220e-01   1.00007770e+07
  5.32483145e-02  -2.76861844e-01   6.15869234e-01   1.52554780e+07
 -1.50086500e-01   1.58868348e-01   5.57149092e-01   3.81495700e+06
 -1.90208321e-02  -2.82998373e-01   6.02029946e-01   1.47975060e+07
  5.91527055e-02  -2.79608890e-01   6.01645469e-01   1.47314520e+07
 -1.25615844e-01   5.32084657e-02   5.83943696e-01   1.67751300e+07
 -4.59169283e-02  -2.86328112e-01   6.12846487e-01   2.69932800e+06
  3.45213879e-02  -2.76530886e-01   6.17432628e-01   1.51505600e+06
 -9.40575672e-02  -3.73519347e-01   7.07035758e-01   1.24204600e+07
 -7.63591400e-02  -2.95642535e-01   6.00793165e-01   1.49925670e+07
 -3.41791663e-02  -3.14108560e-01   6.24118315e-01   7.76046800e+06
 -5.54789981e-02   2.60648824e-01   6.97745275e-01   6.63891500e+06
 -7.50030441e-02  -2.95462215e-01   5.99586876e-01   1.47329920e+07
 -3.84337689e-02  -3.33313628e-01   6.15546546e-01   2.62580100e+06
-0.12133497 -0.01950802  0.54622374  2.        
  9.09428734e-03  -2.76571859e-01   6.22541137e-01   1.31767700e+06
  6.72889574e-02  -2.83175104e-01   5.89056222e-01   1.47329960e+07
 -2.24634909e-02   4.97617042e-02   5.75798889e-01   6.17757600e+06
  3.29299256e-02  -2.77574459e-01   6.11416981e-01   2.16962900e+06
  2.35280147e-02  -2.75630410e-01   6.24217241e-01   1.84401900e+06
 -7.89511337e-02   1.42925011e-01   6.31844728e-01   6.57930000e+04
 -8.27711390e-03  -2.82294456e-01   5.89217238e-01   2.62811300e+06
 -4.50182763e-02   1.02284663e-02   5.51772589e-01   1.48604550e+07
 -8.46873118e-02  -3.74033632e-01   6.71900065e-01   1.46661740e+07
 -1.20861496e-01  -7.32162982e-02   5.21847195e-01   1.91032700e+06
  3.00801809e-02  -2.89554648e-01   5.70772254e-01   1.31380100e+06
 -1.84524128e-02  -2.82456039e-01   6.01613771e-01   1.45993510e+07
 -3.49864457e-02  -2.85650874e-01   5.89433606e-01   1.42724450e+07
 -1.08366598e-01   1.77997627e-01   6.08966385e-01   6.57950000e+04
  8.16309422e-02  -2.83484304e-01   5.90360687e-01   1.48630380e+07
 -1.27117597e-01   2.31165352e-01   6.77026458e-01   3.87818000e+06
 -7.15996656e-02   6.69545033e-02   5.88124903e-01   1.42677970e+07
 -3.10306395e-02  -2.82164157e-01   6.20512962e-01   1.90981400e+06
 -6.17832948e-02   1.66376150e-01   6.45219534e-01   1.30187770e+07
  2.39117037e-02  -2.77887756e-01   6.11317089e-01   2.10486500e+06
  3.48043692e-02  -2.76821845e-01   6.15889558e-01   1.44977600e+06
 -9.22028952e-02  -7.77747593e-02   5.10180618e-01   1.77822600e+06
  3.47482114e-02  -2.76620751e-01   6.16746265e-01   1.58136200e+06
 -3.23160867e-02  -2.82175576e-01   6.20988180e-01   1.77822800e+06
 -4.93940529e-02  -2.87929022e-01   6.00977858e-01   1.56517760e+07
 -9.67035861e-02   5.04733553e-02   5.81973569e-01   1.43315270e+07
 -1.66283013e-02   4.17591628e-02   5.70939814e-01   1.30251890e+07
 -7.52577858e-02  -7.28839299e-02   4.94501603e-01   1.47306740e+07
 -1.42289269e-01   2.49508623e-01   6.85629864e-01   1.31328000e+05
 -6.48847079e-02   5.48516801e-02   5.80339025e-01   1.55852030e+07
 -7.97545734e-02   9.57326348e-03   5.55194322e-01   1.50593800e+07
  7.54940333e-02  -2.88391890e-01   5.73687638e-01   5.58493400e+06
 -1.20648715e-01   5.19456808e-02   5.82493743e-01   1.52526310e+07
  3.47723332e-02  -2.80792228e-01   5.89173498e-01   3.15471500e+06
 -5.85813063e-02   1.38670979e-01   6.29622653e-01   1.45312300e+07
 -1.24568851e-01   1.03979293e-01   6.08049427e-01   1.42102590e+07
 -6.84756016e-02   1.66105263e-01   6.44055775e-01   1.19021010e+07
 -8.51133935e-02  -7.06342847e-02   5.12903025e-01   1.77874100e+06
 -1.16043029e-01  -1.02045286e-01   5.04208860e-01   1.48622580e+07
  5.30217540e-02  -2.73848185e-01   6.31016306e-01   9.01055900e+06
 -2.03699986e-02  -2.82717988e-01   5.99206523e-01   1.49956530e+07
 -4.76452494e-02  -6.48444986e-02   4.92476499e-01   1.64715500e+06
 -2.73107260e-02  -2.86441842e-01   5.71419833e-01   5.45644300e+06
  6.05002695e-02  -2.72865089e-01   6.32773608e-01   1.06504710e+07
 -1.21306898e-01  -6.28832065e-02   5.23935445e-01   1.51909750e+07
 -7.94155687e-02  -3.22858889e-02   5.31250736e-01   1.49920380e+07
 -7.39691505e-02   1.84013982e-01   6.54776628e-01   1.31328000e+05
 -2.81316106e-02   5.25326143e-02   5.77470166e-01   1.67725740e+07
 -8.27913111e-02   4.80931355e-02   5.77901044e-01   1.39408960e+07
 -8.47684557e-02  -2.97641976e-01   6.02898822e-01   1.46661720e+07
  2.46730941e-02  -2.80502466e-01   5.91088858e-01   1.47324830e+07
 -3.98990110e-02   9.91166044e-03   5.51395871e-01   1.51891680e+07
  1.24033024e-01  -2.85066484e-01   6.22596751e-01   8.48034700e+06
  9.30132679e-02  -2.85888651e-01   5.91821263e-01   7.29941600e+06
  7.55326685e-02  -2.87966073e-01   5.74794865e-01   4.40349100e+06
  1.23495991e-01  -2.85391900e-01   6.22811995e-01   8.08661400e+06
  5.76095326e-02  -2.80201746e-01   6.01698350e-01   1.44685350e+07
  5.26700059e-02  -2.77023894e-01   6.16679375e-01   1.35487200e+07
 -5.32419585e-02   2.56234205e-01   6.95605742e-01   9.00796600e+06
  7.83152915e-02  -2.89605926e-01   5.73842806e-01   2.49549400e+06
  1.92701095e-02   2.06631757e-01   6.72522016e-01   1.01302970e+07
  8.72168921e-02  -2.79988122e-01   6.09617346e-01   1.49280630e+07
 -9.36835272e-03  -2.83144565e-01   5.84695040e-01   1.45358760e+07
 -1.39993780e-02   3.62128851e-02   5.68592833e-01   1.47944000e+07
  2.33350327e-02  -2.81225139e-01   5.85648921e-01   1.44019700e+07
 -1.22418548e-01  -1.13882062e-02   5.50720885e-01   1.48601910e+07
 -6.37180305e-04   2.57850487e-01   7.00864845e-01   1.50609320e+07
 -4.36338785e-02   2.87434045e-01   6.84991503e-01   4.60345200e+06
 -7.94315359e-02   2.14382565e-01   6.71395790e-01   1.30856000e+07
 -9.44411777e-02  -7.60815286e-02   5.01664451e-01   2.49627200e+06
 -7.07156063e-02   1.67256893e-01   6.45687633e-01   1.28226890e+07
 -1.58004206e-01   1.96223770e-01   6.56273850e-01   2.10305800e+06
 -5.96869952e-02   6.42012071e-02   5.85638897e-01   1.64224300e+06
 -6.12342333e-02   1.02401072e-01   6.07023536e-01   1.70932700e+06
 -5.62863158e-02   2.49325837e-01   6.91543886e-01   7.42970900e+06
 -7.33977864e-02   2.39298163e-01   6.84865957e-01   7.82420200e+06
 -8.79222808e-02   2.40419805e-01   6.84640499e-01   5.45387100e+06
  8.29391058e-03  -2.81717536e-01   5.85804859e-01   1.46003790e+07
 -1.98899645e-03   2.60555581e-01   7.02137985e-01   1.36769590e+07
 -3.45221351e-02   5.10466920e-03   5.10383366e-01   1.23006940e+07
 -1.44336989e-02   3.47414580e-02   5.65670817e-01   1.51231120e+07
 -8.41948682e-03   5.98482755e-02   5.83698974e-01   2.82704000e+06
 -9.29909064e-02  -7.06740368e-02   5.14199267e-01   2.10770400e+06
  4.49304216e-02  -2.80757389e-01   5.92296601e-01   1.44675040e+07
  1.86521469e-02   2.04155074e-01   6.71523830e-01   5.92006300e+06
 -1.00357508e-01   2.52490671e-01   6.96293907e-01   9.86355200e+06
 -7.41362517e-02   1.74127746e-01   6.49223460e-01   6.57930000e+04
  9.45419237e-02  -2.68451424e-01   6.56878525e-01   1.39388400e+07
  6.98772449e-02  -2.81508456e-01   5.96280047e-01   1.44035180e+07
 -4.09319879e-02  -3.26759494e-01   6.63565894e-01   7.42869200e+06
 -4.82277757e-02  -2.88303296e-01   5.91387172e-01   1.36191390e+07
 -1.19904844e-02  -2.81689201e-01   5.97472624e-01   1.42667760e+07
 -9.69509930e-02   4.81133304e-02   5.79286408e-01   1.27561080e+07
  8.68243386e-02  -2.82379322e-01   6.00827577e-01   1.02616310e+07
 -5.72645480e-02  -9.71425501e-02   4.32000258e-01   1.39398670e+07
  1.14398888e-01  -2.83913041e-01   6.19814283e-01   1.51246300e+06
  1.09754032e-01  -2.37648521e-01   7.02350852e-01   1.03875740e+07
  1.12066235e-01  -2.35809049e-01   7.01523171e-01   9.72861400e+06
 -1.66572262e-02   1.63689993e-01   7.23400709e-01   6.64351900e+06
  9.21642228e-02  -2.68153142e-01   6.56730320e-01   1.45970230e+07
  1.26666615e-01  -2.84882933e-01   6.27149932e-01   7.29556200e+06
  1.26391757e-01  -2.41266393e-01   6.95359694e-01   1.25602610e+07
 -6.24254588e-02   1.00847486e-01   6.07590256e-01   1.38036400e+06
 -1.14517316e-01  -9.94352026e-02   5.05336936e-01   1.61094960e+07
 -1.32358134e-01  -2.13817374e-02   5.46768803e-01   9.07246800e+06
 -1.00921046e-01   4.78086704e-02   5.79401606e-01   1.44014500e+07
 -8.97850153e-02  -3.00779698e-01   5.95486205e-01   1.49280630e+07
 -1.27883073e-01  -3.53583838e-02   5.22063196e-01   1.08553180e+07
 -6.99891455e-02   1.66548793e-01   6.45821257e-01   1.28884780e+07
 -1.31760368e-01  -1.67744757e-02   5.48962587e-01   1.62446750e+07
 -5.16341434e-02  -3.30957720e-01   6.48884288e-01   3.02751800e+06
 -5.39859628e-02   2.79124405e-01   7.07603642e-01   1.24947410e+07
  6.04935597e-02  -2.79329432e-01   6.03947303e-01   1.44029990e+07
  1.12682796e-01  -2.76817206e-01   6.39992751e-01   4.01184300e+06
  1.27855507e-01  -2.39987922e-01   6.98601318e-01   1.44461300e+06
  2.62917001e-02  -2.77933662e-01   6.10772429e-01   1.51066700e+06
 -7.70184391e-02   2.10404253e-01   6.68741155e-01   1.37435290e+07
 -1.06369014e-01  -1.17720381e-01   4.94455519e-01   4.01156800e+06
 -1.38327419e-01  -1.15758426e-02   5.45242029e-01   1.20971470e+07
  6.92932382e-02  -2.80206294e-01   6.00695781e-01   1.46646290e+07
  2.62594595e-02  -2.80209704e-01   5.94608745e-01   1.51256910e+07
 -8.01048008e-02   2.80510997e-01   7.06670658e-01   9.59958400e+06
  2.61185122e-02  -2.89862232e-01   5.71839343e-01   2.23283500e+06
 -6.48741534e-02   1.07044345e-02   5.54094485e-01   1.46635900e+07
 -5.17189842e-03  -2.75258423e-01   6.46508258e-01   1.49732530e+07
 -3.43771641e-02  -2.84515796e-01   6.10707177e-01   3.48755500e+06
  3.43263179e-02  -2.81264732e-01   5.86061970e-01   1.46661740e+07
  1.12370865e-02  -3.05307859e-01   5.91055832e-01   4.93009600e+06
  2.34036357e-02  -2.80813555e-01   5.84201338e-01   1.53264120e+07
 -3.95998408e-02  -6.27361273e-02   4.98565189e-01   1.38423500e+06
 -8.42609523e-02   1.84740600e-01   6.54735360e-01   6.55360000e+04
-0.08288786  0.12503886  0.62139534  0.        
  2.25554724e-02  -2.81408872e-01   5.84754215e-01   1.57854220e+07
 -2.22807295e-02  -2.82722840e-01   6.04773610e-01   1.41382750e+07
  5.35867299e-02  -2.76535754e-01   6.18805865e-01   1.54538860e+07
  1.11704930e-01  -2.84663363e-01   6.11803770e-01   4.93061700e+06
 -2.75429113e-02   2.48095214e-01   6.90418685e-01   9.46876800e+06
 -2.39959531e-01  -4.60493583e-01   7.88716521e-01   2.03800000e+04
  1.27500127e-01  -2.84399301e-01   6.28058725e-01   8.41429400e+06
 -6.44705144e-02  -2.92587769e-01   5.89542148e-01   1.47982760e+07
  5.93691266e-02  -2.81813718e-01   5.90557376e-01   2.36544800e+06
 -1.23584746e-01   6.23991326e-03   5.59096538e-01   1.67013700e+07
 -1.71283095e-02   5.99925124e-02   5.82935441e-01   2.95938100e+06
 -2.66855540e-02   1.32813758e-02   5.04157500e-01   1.67758880e+07
 -1.00076612e-01   7.62563515e-03   5.56906857e-01   5.89825000e+05
 -9.14258975e-02   1.53524414e-01   6.37190457e-01   1.13109940e+07
 -1.14883278e-01   4.73376458e-02   5.80453534e-01   1.45299470e+07
 -6.63369375e-02  -2.92945886e-01   5.91944318e-01   1.49301210e+07
 -7.40875280e-02   1.25367525e-01   6.21464241e-01   2.62659000e+05
 -1.15340524e-01  -1.11377422e-01   4.98704247e-01   1.49935960e+07
 -1.19192927e-01  -1.21285251e-01   4.96805461e-01   1.51246700e+07
 -5.17312295e-02   2.56223928e-01   6.95533167e-01   9.92803800e+06
 -1.36471797e-01   4.55384550e-02   5.80045175e-01   1.37414490e+07
  1.05760616e-01  -2.37382414e-01   6.94569437e-01   1.96941300e+06
 -1.10810568e-01   2.79866253e-01   7.04407125e-01   1.43359160e+07
  1.39072212e-01  -2.87542440e-01   6.27650413e-01   3.94088100e+06
 -5.37637346e-02   2.72647221e-01   7.04518154e-01   2.56154800e+06
 -9.24937665e-02  -3.72475012e-01   7.12588993e-01   1.09061920e+07
  9.50024125e-02  -2.69220121e-01   6.55059561e-01   1.43292030e+07
 -7.86272622e-02   1.00007444e-02   5.55565089e-01   1.59789340e+07
  5.94326883e-02  -2.81173206e-01   5.94911276e-01   1.47985350e+07
 -4.08264185e-02   4.79496122e-02   5.74680965e-01   1.42030390e+07
  2.59823517e-02  -2.82895232e-01   5.81773180e-01   1.46659200e+07
 -6.29593875e-02  -2.50905203e-02   5.32134371e-01   9.00874100e+06
 -6.08360506e-02   1.35066201e-01   6.27423911e-01   1.19689240e+07
 -1.28827093e-01  -2.75152599e-02   5.42660720e-01   1.21603700e+07
  6.45498267e-02  -2.84186950e-01   5.86055508e-01   1.47995650e+07
 -6.74721314e-02   1.55188503e-01   6.38619521e-01   1.28884800e+07
-0.09388233  0.12506259  0.62136044  0.        
 -7.08530378e-02   1.55569255e-01   6.38825571e-01   1.26263370e+07
  1.25460128e-02   1.69937880e-01   6.49036236e-01   1.57799500e+06
 -5.07905241e-02  -1.21269349e-02   5.23016758e-01   1.62495640e+07
 -4.24836709e-02  -3.21396120e-03   5.16575861e-01   1.67766740e+07
 -4.86082293e-02  -2.88679044e-01   5.91707578e-01   1.32834910e+07
  1.06488349e-01  -2.78382309e-01   6.36805483e-01   8.61218600e+06
 -5.01164730e-02   4.76321490e-02   5.74925750e-01   1.36728230e+07
 -8.74678589e-02  -8.19161469e-02   4.93738333e-01   2.76305400e+06
  7.07366895e-02  -2.83360190e-01   5.90091106e-01   1.48648420e+07
  2.59033693e-02  -2.80490717e-01   5.94832115e-01   1.52575290e+07
  6.04743752e-02  -2.69383122e-01   6.48050213e-01   1.14965290e+07
  1.07819116e-01  -2.87340895e-01   6.13456909e-01   4.47084000e+06
 -1.11975077e-01   1.46925616e-01   6.19043879e-01   6.57930000e+04
 -9.80584261e-02   2.82244853e-01   7.06534911e-01   1.05882840e+07
 -1.16284493e-01  -1.04237217e-01   5.03667924e-01   1.45980510e+07
 -3.84935698e-02   9.16522457e-04   5.13510566e-01   9.79877000e+06
 -8.29085719e-02   1.36124368e-02   5.58500182e-01   1.45307150e+07
 -1.11904658e-01   1.47038949e-01   6.19016240e-01   6.57930000e+04
  8.03236749e-02  -2.87956345e-01   5.77889432e-01   1.38709880e+07
 -7.84851359e-02   4.88250885e-02   5.77861670e-01   1.43330720e+07
 -1.23622449e-01  -7.68175331e-02   5.17876603e-01   1.23652260e+07
  2.76416560e-03  -2.84038203e-01   5.71515102e-01   1.61755500e+07
 -6.19443453e-02  -3.44529950e-01   6.29089534e-01   6.70288800e+06
  1.16102542e-01  -2.92653251e-01   5.92932514e-01   3.41815200e+06
 -2.72226086e-02   4.83496452e-02   5.74923965e-01   8.87303800e+06
 -5.56951932e-02   5.24483443e-03   5.49780851e-01   1.49920380e+07
 -2.83719496e-02   2.67327775e-01   7.00256842e-01   2.82446300e+06
 -5.85387473e-02  -3.31505659e-01   6.65093928e-01   1.71243300e+06
 -1.23722321e-01  -1.06836288e-01   5.03875668e-01   1.45327820e+07
 -7.88154745e-02   2.68544439e-01   7.00618090e-01   1.20357300e+07
  1.52084674e-01  -2.42370113e-01   7.04098381e-01   5.19222900e+06
 -6.58336181e-02   4.89459230e-02   5.76905361e-01   1.42685690e+07
  2.93284246e-02  -2.75967417e-01   6.24369858e-01   1.08532740e+07
  8.20199580e-02  -2.82474214e-01   5.98905810e-01   1.47275800e+07
 -5.18520214e-02   5.05376695e-02   5.76859284e-01   7.49190200e+06
 -1.20751760e-01   7.68805030e-02   5.96799733e-01   1.45970210e+07
 -5.80100199e-02  -2.14609087e-02   5.33405537e-01   6.17707300e+06
 -6.06905899e-02   1.64683951e-01   6.44107444e-01   1.32829790e+07
 -3.04008936e-02   9.41293140e-03   5.07121843e-01   1.65805780e+07
  3.38945720e-02  -2.78877974e-01   6.02845920e-01   2.89541800e+06
  5.44152445e-02  -2.78643542e-01   6.06111047e-01   1.51899380e+07
 -5.63755469e-02   1.59615827e-02   5.56125882e-01   1.45322550e+07
 -1.12724903e-01  -3.80458535e-01   6.97439881e-01   1.84427900e+06
 -7.08106306e-02   1.86302546e-01   6.56097761e-01   1.28226850e+07
  6.52892151e-02  -2.72559611e-01   6.34851054e-01   1.31482850e+07
 -5.09864049e-02  -3.37886453e-01   6.43082010e-01   1.47946600e+07
  1.32246247e-02  -2.76844981e-01   6.21312454e-01   1.64664000e+06
 -4.81556520e-02   6.99339205e-03   5.50026643e-01   1.47306660e+07
  9.76820777e-02  -2.75740660e-01   6.32548155e-01   8.61218800e+06
 -2.14017038e-02   4.53222049e-02   5.73461596e-01   1.38730370e+07
 -1.11133320e-01   4.74862091e-02   5.79937303e-01   1.37417120e+07
 -1.15033659e-01  -3.81603751e-01   6.91397889e-01   3.81498000e+06
  6.50187400e-02  -2.84385810e-01   5.88550149e-01   1.46661740e+07
 -1.17711591e-01  -1.12293616e-01   4.98808893e-01   1.48612300e+07
 -1.19051813e-01  -8.05683842e-02   5.16115870e-01   1.49270230e+07
 -7.92720348e-02   1.03624778e-02   5.55485335e-01   1.49277930e+07
  1.16787602e-01  -2.92325011e-01   5.92602585e-01   4.07530800e+06
 -8.28626671e-02   2.62576760e-01   6.96879843e-01   4.33616000e+06
 -6.85570821e-03   7.02211833e-02   3.84598538e-01   1.44019600e+07
 -8.59220196e-02   1.78474609e-01   6.51129232e-01   6.11386200e+06
 -1.18837226e-01   7.30756015e-02   5.94538143e-01   1.45970230e+07
 -1.30174468e-01   2.30758589e-01   6.76718946e-01   3.48316900e+06
 -8.47417080e-02  -4.45543092e-02   5.24975334e-01   1.51246300e+06
 -1.17149091e-01  -1.20129764e-01   4.96433746e-01   1.28876940e+07
 -9.92774043e-02  -6.50701297e-02   5.18349958e-01   1.77822800e+06
 -6.73746726e-02   1.92905950e-01   6.60033759e-01   1.41372600e+07
  2.07437369e-02  -2.79076541e-01   6.04798933e-01   4.53610600e+06
  3.47021078e-02  -2.80268066e-01   5.92861058e-01   1.48625210e+07
-0.10380225  0.15804949  0.63943198  0.        
  5.82457794e-02  -2.76865470e-01   6.17452684e-01   1.47317070e+07
  2.66203605e-02  -2.81120682e-01   5.86298582e-01   1.42063980e+07
 -7.12302774e-02   1.75606538e-01   6.49991425e-01   1.28892500e+07
  2.75397546e-02  -2.81836704e-01   5.85427295e-01   1.51932860e+07
 -2.79301328e-02   2.76641759e-01   7.08934450e-01   1.30845620e+07
 -5.89504483e-02  -2.07245875e-02   5.29113274e-01   1.01955850e+07
 -6.26754939e-02   1.05401606e-01   6.07040579e-01   1.52552110e+07
 -7.67848670e-02   2.01641600e-01   6.64213904e-01   1.32174470e+07
  1.27712111e-01  -2.84158969e-01   6.27992773e-01   8.34850300e+06
 -3.56440733e-02   2.65542972e-01   7.01970832e-01   1.44006690e+07
 -1.02181316e-01   1.00822811e-02   5.52293286e-01   1.49912680e+07
  3.85788205e-03  -2.78978930e-01   6.08815031e-01   1.46651400e+07
 -1.13176309e-01   1.34839870e-02   5.62634456e-01   1.47951760e+07
  1.38568859e-01  -2.89145498e-01   6.22587923e-01   1.99468600e+06
  2.60913360e-02  -2.81932484e-01   5.83516675e-01   1.49959140e+07
 -4.78511518e-02   1.00251124e-02   5.51886776e-01   1.49272770e+07
  4.47645418e-02  -2.81565264e-01   5.86888673e-01   1.47985280e+07
 -6.89178044e-02   1.27002932e-01   6.21674618e-01   3.81264700e+06
-0.10203313  0.12571899  0.62219294  0.        
  1.80858684e-02  -2.84325131e-01   5.68074823e-01   5.71754600e+06
 -8.66010673e-02   1.47928346e-01   6.34399669e-01   1.08509580e+07
  9.94101614e-02  -2.84100774e-01   5.99766979e-01   4.53637000e+06
 -7.76558503e-02   2.05539618e-01   6.66525594e-01   1.36119440e+07
  3.19186333e-02  -2.79798710e-01   5.96891515e-01   1.45990880e+07
 -5.03926684e-02   7.41119428e-02   5.91746375e-01   1.47286070e+07
 -7.76910876e-02   2.05935230e-01   6.66424640e-01   1.34143030e+07
 -9.86763372e-02  -7.04232319e-02   5.15544619e-01   1.90981200e+06
 -3.03077708e-02   6.38449537e-02   5.82014294e-01   4.99538100e+06
 -9.54011337e-02   6.98131275e-02   5.91414815e-01   1.45970210e+07
 -7.29578369e-02   9.88589379e-02   6.08057864e-01   6.57930000e+04
 -8.94286346e-02   1.64342544e-01   6.42715950e-01   8.87690400e+06
  1.08485952e-01  -2.37936279e-01   6.95891394e-01   6.11229400e+06
 -1.03574480e-01  -1.18538381e-01   4.79254752e-01   1.47319670e+07
  1.06482522e-01  -2.39223276e-01   6.91638259e-01   1.11786080e+07
 -1.31946384e-01   4.29694040e-02   5.78608113e-01   1.19007890e+07
  5.90036750e-02  -2.85058866e-01   5.77959678e-01   1.49270240e+07
 -1.24046270e-01  -3.84601366e-01   6.91892909e-01   3.02700400e+06
  4.44187985e-02  -2.81718413e-01   5.87097152e-01   1.41387800e+07
 -4.76637972e-02   5.24419112e-02   5.74356294e-01   1.38085350e+07
 -2.75226560e-02   2.65452651e-01   7.02629888e-01   1.08517070e+07
 -7.10924784e-02   1.01252819e-01   6.07694942e-01   6.57920000e+04
 -7.27754219e-02   7.31728354e-02   5.90481339e-01   1.47286050e+07
 -7.15034576e-02   1.00717190e-01   6.07882450e-01   6.57930000e+04
 -1.39253971e-01  -4.27558000e-02   5.35801834e-01   1.07211790e+07
 -1.20017491e-01  -3.49720067e-01   6.57369801e-01   1.41377610e+07
  6.41480225e-02  -2.81021607e-01   5.96991245e-01   1.49290820e+07
 -7.21467912e-02   7.22062694e-02   5.90917916e-01   1.48601930e+07
 -6.95901912e-02   1.13696893e-01   6.14688873e-01   1.37933300e+06
  6.57807715e-02  -2.80344180e-01   5.99466312e-01   1.46656590e+07
 -4.99727302e-03   1.81862459e-01   6.55536867e-01   2.30197700e+06
  2.77492342e-02  -2.76223755e-01   5.59399173e-01   6.50474200e+06
  5.78682021e-03   2.10312975e-01   6.73394216e-01   9.40555400e+06
 -8.08389283e-02   2.57399820e-01   6.94109641e-01   1.01254270e+07
  3.23665493e-02   2.11502488e-01   4.95300969e-01   9.93370300e+06
 -3.72370445e-02  -3.27901494e-01   6.43859154e-01   2.76486200e+06
 -1.27600546e-01  -8.73386939e-02   5.13905700e-01   2.63018200e+06
 -3.87407000e-02   7.93904910e-03   5.50288269e-01   1.47954300e+07
  2.44584827e-03  -2.77739382e-01   6.14917120e-01   1.49938480e+07
  1.20179147e-01  -2.38973174e-01   6.97861183e-01   5.98045600e+06
 -4.07013933e-02  -3.26953886e-01   6.61951463e-01   7.36496800e+06
  1.32067709e-01  -2.90198875e-01   6.15852476e-01   4.86147200e+06
  1.23572738e-01  -2.81668356e-01   6.34856238e-01   1.61107710e+07
  1.14198671e-01  -2.75878121e-01   6.46096550e-01   6.11257100e+06
 -2.68131529e-02   2.76768398e-01   7.08945956e-01   9.66615300e+06
 -1.17440927e-01  -1.11860897e-01   4.99915286e-01   1.42680640e+07
 -5.72206666e-02   4.78616995e-02   5.75475674e-01   1.32803840e+07
  2.71143210e-03  -2.77475501e-01   6.14741045e-01   1.49277940e+07
 -5.66769698e-02   4.80227248e-02   5.75365705e-01   1.36751410e+07
  7.13194711e-02  -2.45897713e-01   6.58525124e-01   1.08527490e+07
  5.84246666e-02  -2.69289673e-01   6.47728497e-01   1.47283540e+07
 -8.14762737e-02   2.57513760e-01   6.94006068e-01   8.87689000e+06
  3.43874209e-02  -2.79959989e-01   5.93905511e-01   1.51267250e+07
 -8.51255638e-02   2.07499384e-01   6.67191966e-01   1.32174470e+07
  8.03786662e-02  -2.89985112e-01   5.72835191e-01   1.18170500e+06
 -6.73639841e-02   2.00513091e-01   6.64299436e-01   1.38082930e+07
 -9.77183871e-02  -7.83296195e-02   5.05011393e-01   2.30044700e+06
 -6.43209822e-02   7.09708302e-02   5.90425268e-01   1.47283480e+07
 -8.80057171e-02   1.14243936e-01   6.15532196e-01   6.56899000e+05
 -8.79269803e-02   1.14116654e-01   6.15245833e-01   6.56899000e+05
  1.17078692e-02  -2.83444471e-01   5.73752415e-01   1.44019700e+07
 -8.16909967e-02  -3.56493356e-01   7.16449156e-01   1.47286070e+07
  1.44458981e-01  -2.44103036e-01   6.96858746e-01   1.42040710e+07
 -4.48219264e-03   6.59798570e-02   5.88009830e-01   1.65710710e+07
 -4.99517241e-02   4.26652751e-02   5.71885933e-01   1.51236250e+07
 -7.50950549e-02   4.88168650e-02   5.77430785e-01   1.36756560e+07
  7.04697908e-03  -2.77160636e-01   6.19082682e-01   2.23543000e+06
-0.15779765  0.08350972  0.56735657  0.        
 -8.38536165e-02  -6.55360145e-02   5.12112977e-01   3.30005000e+05
 -6.97002455e-02   2.23455641e-01   6.77135346e-01   1.61781100e+07
 -2.61896314e-03   7.14761366e-02   3.82110235e-01   1.41390480e+07
  1.19880370e-01  -2.82259553e-01   6.29797539e-01   3.41815400e+06
-0.08444483  0.14638067  0.63345903  0.        
  1.19667195e-01  -2.82438624e-01   6.29876814e-01   3.48420000e+06
 -2.82135858e-02  -2.83777004e-01   6.00133943e-01   1.46648830e+07
 -9.23427998e-02   8.41345201e-02   5.98860803e-01   6.55360000e+04
 -1.13155291e-01   1.30702839e-01   6.24387599e-01   6.57930000e+04
 -2.12135849e-03  -2.82568975e-01   5.83695196e-01   1.58460570e+07
 -4.16711218e-02  -2.86358114e-01   5.98140347e-01   1.45970230e+07
 -6.14168105e-02   1.73654751e-01   6.49615793e-01   1.31524220e+07
 -6.55204535e-02   2.60789309e-02   5.63677481e-01   1.48609690e+07
 -1.11362479e-01  -1.07228085e-01   5.02149011e-01   1.42708890e+07
 -5.37990066e-02  -3.34691489e-01   6.12051004e-01   9.80622900e+06
 -4.05974673e-03   6.57337906e-02   5.88048147e-01   5.78411700e+06
 -6.92761508e-02  -2.94391979e-01   5.84552717e-01   8.74118500e+06
 -6.03818194e-02   1.14226025e-01   6.15346662e-01   3.28733200e+06
 -3.79041618e-02   7.67110047e-03   5.50296250e-01   1.49267620e+07
 -1.03048922e-01   4.64781842e-02   5.78424210e-01   1.26946660e+07
  1.11191063e-01  -2.38242978e-01   6.95574053e-01   2.29990800e+06
  4.75310313e-02  -2.77661887e-01   6.09508922e-01   1.41398300e+07
 -8.69881124e-02   2.81418559e-01   7.00108762e-01   1.05204330e+07
 -1.02931661e-01   1.00440370e-01   6.07968108e-01   6.55360000e+04
  1.24302636e-01  -2.81531432e-01   6.38151840e-01   1.67699820e+07
 -9.33442782e-02   6.45433534e-02   5.88363715e-01   1.42683080e+07
 -1.26373859e-01   4.54759392e-02   5.79779518e-01   1.43330710e+07
 -7.06073686e-02   1.12948080e-01   6.14926004e-01   4.53508100e+06
 -1.21274268e-01  -1.20970710e-02   5.50110724e-01   1.49904980e+07
 -7.42534428e-02   2.07893196e-01   6.68609282e-01   1.36779940e+07
 -6.82133015e-02   1.62939747e-02   5.57680527e-01   1.44664650e+07
  9.14880534e-03  -2.77962220e-01   6.16972382e-01   1.31767500e+06
 -5.92826880e-02   6.83289137e-02   5.87700651e-01   1.51233650e+07
 -1.32559349e-01  -2.45823252e-02   5.45242126e-01   1.10398390e+07
 -4.92414027e-02  -3.28405602e-01   6.72246685e-01   7.88588200e+06
 -8.91253972e-02   9.37051703e-03   5.57016934e-01   1.47956910e+07
 -6.97848941e-02  -3.35482990e-01   6.54558113e-01   1.47946600e+07
 -8.58297459e-02   9.55343147e-03   5.56385471e-01   1.44006720e+07
  5.29951345e-02  -2.49259093e-01   6.43369143e-01   1.67070250e+07
  1.50359767e-01  -2.91207487e-01   6.17245509e-01   1.73151600e+06
 -5.98296522e-02   1.22162004e-02   5.54191974e-01   1.49928160e+07
 -8.51552207e-02   2.21838753e-01   6.75068233e-01   1.14348580e+07
 -1.13557751e-01   4.48454466e-02   5.78517965e-01   1.41387880e+07
 -4.25728273e-02   1.30181195e-01   6.15515960e-01   1.47944000e+07
-0.0829247   0.10080808  0.60776021  0.        
  1.11330474e-01  -2.96342762e-01   5.88037645e-01   9.27627800e+06
 -1.24356792e-01  -7.27757927e-02   5.08391074e-01   2.01766000e+05
  1.91351497e-01  -2.96192227e-01   6.49525185e-01   2.65133000e+06
 -4.66583508e-02  -2.86133281e-01   6.15835047e-01   1.43377230e+07
 -3.48451560e-02   6.45774864e-02   5.84972876e-01   1.45970210e+07
  4.27049604e-03   1.91308786e-01   6.62012417e-01   2.03880500e+06
  6.27113569e-02   1.61477415e-01   4.26873948e-01   5.92717300e+06
 -6.75086812e-02   1.63388729e-01   6.43710527e-01   1.22968620e+07
 -8.70176811e-02   2.43699578e-01   6.86466232e-01   8.02542100e+06
 -9.36937785e-02   1.48507405e-01   6.34534768e-01   4.60551000e+05
  1.11654088e-01  -2.41130515e-01   6.90465660e-01   1.42690860e+07
  9.84146973e-02  -2.90830394e-01   5.80987929e-01   4.27216900e+06
  9.33766533e-02  -2.73253303e-01   6.38676662e-01   1.47967280e+07
 -7.58761325e-02   7.80587979e-02   5.94313043e-01   6.24259900e+06
 -7.95342921e-02   6.33882570e-02   5.86367583e-01   4.40324100e+06
 -5.49375817e-02  -9.71172155e-02   4.30779045e-01   1.55224820e+07
 -7.31892796e-02   1.44373211e-01   6.31546212e-01   1.96866000e+05
-0.08297914  0.10122006  0.60814017  0.        
 -9.02300445e-02   4.70066798e-02   5.77842752e-01   1.19671060e+07
 -3.50434682e-02   6.64625029e-02   5.85987462e-01   1.46628140e+07
 -4.65065644e-02   1.36376330e-01   4.12233092e-01   1.34808700e+07
  1.05413172e-01  -2.80786382e-01   6.20973958e-01   8.08636100e+06
 -1.06409244e-01   1.14607205e-01   6.15385676e-01   2.30069600e+06
  5.88067450e-02  -2.83041716e-01   5.86087410e-01   1.50604170e+07
 -1.22901550e-01  -1.12929759e-01   5.01113079e-01   1.47975060e+07
  9.95693399e-02  -2.73407888e-01   6.41829737e-01   8.08558300e+06
  3.15990401e-02  -2.81288558e-01   5.86348733e-01   1.51932940e+07
  1.17995348e-03   1.55937222e-01   6.39636886e-01   5.53141600e+06
 -5.59719947e-03   7.76827508e-02   5.95398157e-01   1.44654370e+07
 -2.91928277e-03   1.96457509e-01   6.64437084e-01   9.20817100e+06
-0.15918797  0.08183946  0.56781497  0.        
 -3.08961272e-02   2.29317150e-01   6.81909741e-01   1.24931850e+07
  1.76239422e-01  -2.92667089e-01   6.51022257e-01   6.50578700e+06
 -1.29054857e-01  -9.38299820e-02   5.13897099e-01   2.56258000e+06
  1.04032055e-01  -2.79439725e-01   6.28918754e-01   8.80956500e+06
  9.14315201e-02  -2.88124194e-01   5.85177508e-01   7.23234100e+06
 -1.05742995e-01  -3.66541357e-01   6.44528109e-01   6.78829000e+05
 -7.08138451e-02   1.18193782e-01   6.17623771e-01   4.79851300e+06
 -2.05326137e-02  -2.82449090e-01   6.05200647e-01   1.47319670e+07
  9.33217979e-02  -2.76298621e-01   6.27419965e-01   1.50609300e+07
  2.69985958e-02  -2.82747072e-01   5.81557988e-01   1.46666900e+07
 -1.31519808e-01  -7.10912218e-02   5.21977026e-01   1.46672130e+07
  9.32502228e-02  -2.88974547e-01   5.82808692e-01   4.40323100e+06
  1.24278042e-01  -2.79702071e-01   6.38957762e-01   1.42012260e+07
  9.68739805e-02  -2.76912960e-01   6.27121939e-01   8.01979000e+06
 -3.46924268e-02   6.64503790e-02   5.85953714e-01   1.46628140e+07
 -5.41711249e-02   8.92815009e-02   6.06115141e-01   1.44651760e+07
 -1.04868230e-01   6.57931484e-02   5.89646379e-01   1.47941410e+07
 -5.43941774e-02   8.87790880e-02   6.06305188e-01   1.46625550e+07
 -6.32711024e-02   1.25020816e-02   5.55304796e-01   1.47296440e+07
 -9.27217714e-02   1.01192617e-01   6.08473355e-01   6.57930000e+04
 -8.53127456e-02   2.16948246e-01   6.72148719e-01   1.38746020e+07
 -1.05412505e-01   1.45467521e-02   5.61793113e-01   1.46635920e+07
 -5.84559344e-02   4.78978199e-02   5.75531907e-01   1.34129970e+07
  9.34995682e-02  -2.73293666e-01   6.38624607e-01   1.48625190e+07
 -5.37187543e-02   2.82088659e-01   7.08864728e-01   9.79773900e+06
  1.02065370e-01  -2.68075466e-01   6.62242412e-01   6.44178900e+06
 -7.69946829e-02   4.80659597e-02   5.77430517e-01   1.36756580e+07
  1.15321301e-01  -2.39042844e-01   6.95481801e-01   1.02634330e+07
  1.29478117e-02   1.93461365e-01   6.64132789e-01   2.36725900e+06
 -7.87095651e-02   3.53452592e-03   5.52481626e-01   1.48604530e+07
 -8.88586071e-02   6.89970551e-02   5.90219256e-01   1.46628120e+07
  1.26702379e-01  -2.83188822e-01   6.30530276e-01   7.36186600e+06
 -7.68169983e-02   2.35115371e-01   6.82261884e-01   1.09180290e+07
  1.40825665e-01  -2.37690374e-01   7.10165684e-01   1.47293830e+07
  1.03061741e-01  -2.79990739e-01   6.29334200e-01   8.61167300e+06
  1.48347656e-02   2.12225845e-01   6.75833546e-01   1.50614480e+07
  1.17599443e-01  -2.37867543e-01   7.00821034e-01   1.48604530e+07
 -7.62709926e-02   4.38444468e-02   5.75196718e-01   1.04520720e+07
 -5.34403158e-02   4.52140749e-02   5.73414167e-01   6.77075000e+06
 -6.33357842e-02   2.86081665e-02   5.64533185e-01   1.48601950e+07
  2.56591165e-02  -2.67409578e-01   6.53413261e-01   7.23413000e+06
 -5.74357906e-02   5.29739571e-02   5.74883774e-01   1.47278300e+07
 -7.48285448e-02   1.56216768e-01   6.38925961e-01   1.31586000e+05
 -7.38172453e-02   2.15624907e-01   6.72097504e-01   1.37435270e+07
 -5.87742314e-02   7.05929989e-02   5.88809269e-01   1.47286050e+07
 -2.90966256e-03   2.80554024e-01   7.13729788e-01   1.19046490e+07
  2.32469404e-02  -2.32077718e-01   5.23931194e-01   1.50598920e+07
 -1.11302373e-01  -3.80312809e-01   6.91962219e-01   1.28249970e+07
 -3.92813349e-02  -2.85317268e-01   6.04361621e-01   5.12540900e+06
  1.63026883e-02   5.20547759e-02   6.14179157e-01   1.04908900e+06
 -8.40989038e-02  -1.33939332e-01   4.59536734e-01   1.17617540e+07
 -8.67397624e-02   4.22098432e-02   5.75935255e-01   1.05181150e+07
-0.07578057  0.10259366  0.60860744  0.        
  1.26140543e-02   2.12983300e-01   6.75773543e-01   1.47982780e+07
  1.26672915e-02  -2.23376347e-01   5.66400645e-01   1.42721840e+07
 -1.97065830e-02  -3.12411459e-01   5.89358734e-01   5.51787200e+06
  1.32909602e-01  -2.86144264e-01   6.28758771e-01   7.09843700e+06
 -6.51888357e-02  -2.91067263e-01   6.08810216e-01   1.45327820e+07
 -1.97419760e-02   6.27337691e-02   5.84164095e-01   1.45312300e+07
-0.10372678 -0.03201234  0.55432714  0.        
 -1.13229553e-01   4.60583410e-02   5.80204659e-01   1.39378000e+07
 -1.16872485e-01  -3.82250338e-01   6.94911423e-01   3.94216600e+06
 -5.70558210e-02  -2.42398345e-03   5.45650746e-01   1.47288670e+07
  1.34191386e-01  -2.43258711e-01   6.94528615e-01   1.45990880e+07
 -5.27305619e-02  -2.88552695e-01   6.08972876e-01   4.33563900e+06
 -6.34182989e-02   1.49144500e-01   6.56189609e-01   1.23636820e+07
 -7.60105557e-02   4.31791845e-02   5.74544942e-01   1.50562910e+07
 -7.46269985e-02   1.01627381e-01   6.08050202e-01   6.57930000e+04
 -1.17616029e-01  -1.43594138e-02   5.51493767e-01   1.47286090e+07
 -4.31175977e-02   4.71847158e-02   5.74249990e-01   1.16992820e+07
  4.66422451e-02   1.19323966e-01   3.72387553e-01   1.40064400e+07
-0.08910708  0.10172299  0.60877725  0.        
 -1.26253537e-01  -1.46962329e-01   4.89209308e-01   5.12464400e+06
  1.19125175e-01  -2.79679399e-01   6.39559553e-01   3.81317100e+06
 -7.76293775e-02   2.32896034e-01   6.81272168e-01   1.09833040e+07
  6.90480338e-02  -2.44945992e-01   6.60149101e-01   1.46625550e+07
  6.79487544e-02  -2.70541595e-01   6.43702487e-01   1.46001210e+07
  1.18191362e-01  -2.85248160e-01   6.19451772e-01   2.89154300e+06
 -4.98950131e-02   4.36412426e-02   5.72539691e-01   1.50578240e+07
  6.69346306e-02  -2.71285305e-01   6.44169626e-01   1.48612310e+07
 -1.27670516e-01  -2.34678399e-02   5.45450556e-01   5.51940400e+06
 -8.74118174e-02   1.07408933e-03   5.51985369e-01   1.47293850e+07
 -1.10122968e-01   1.48584253e-02   5.62936727e-01   1.45977990e+07
 -5.69622657e-02   4.57367806e-02   5.74329987e-01   8.15573700e+06
 -1.35909803e-02  -2.28857231e-01   5.27437985e-01   1.32143390e+07
 -8.15776730e-02   1.01972449e-01   6.08509721e-01   6.55360000e+04
  1.05008955e-01  -2.77994348e-01   6.28557760e-01   7.69057100e+06
  1.72228626e-01  -2.92506411e-01   6.49546122e-01   5.97944300e+06
-0.08442734  0.10167143  0.60858801  0.        
 -8.88684124e-02   1.88033497e-02   5.62827958e-01   1.47288670e+07
-0.09306981  0.10067406  0.60834115  0.        
 -7.74631971e-02  -8.48687156e-02   4.99857523e-01   1.42716670e+07
 -1.24808931e-01  -1.02393130e-02   5.48860534e-01   1.47928560e+07
 -5.84092540e-02   4.26188565e-02   5.72597804e-01   1.50578320e+07
 -8.16962747e-02   7.02153935e-02   5.90659065e-01   1.47286070e+07
  3.07085594e-02   3.08365934e-01   7.27828723e-01   1.15098970e+07
 -1.23103523e-01  -3.83190368e-01   6.68940131e-01   6.04496900e+06
  1.03099914e-01  -2.79866182e-01   6.29325383e-01   8.54588200e+06
 -1.30233786e-01  -2.01237530e-02   5.43719491e-01   5.45952800e+06
  1.32778581e-01  -2.43945439e-01   6.93223779e-01   1.42701230e+07
 -8.44429100e-02   1.01888022e-01   6.08542958e-01   6.57930000e+04
 -4.34563347e-02   6.56010944e-03   5.49122055e-01   1.49920410e+07
 -3.05035128e-02  -3.26355625e-01   6.49810757e-01   3.34874800e+06
  1.06887956e-01  -2.98109017e-01   5.87890521e-01   2.68840000e+05
 -8.97068525e-02   1.62690693e-01   6.42199944e-01   8.08635900e+06
 -8.73964370e-02   2.62375859e-01   6.96768253e-01   4.99280900e+06
 -1.10165247e-01   1.57322398e-01   6.15775343e-01   9.19813000e+05
 -2.83629262e-02  -9.12286231e-02   4.01051251e-01   8.14905600e+06
 -1.11220785e-01  -5.76998355e-02   5.24631549e-01   1.46638520e+07
-0.09020782  0.10094611  0.60840485  0.        
 -9.39002445e-02   2.07978139e-01   6.66932628e-01   1.20989660e+07
 -1.75982387e-02   1.85001623e-01   6.57165045e-01   1.48599340e+07
 -8.69935062e-02  -2.49557647e-02   5.37221301e-01   1.49925550e+07
-0.09768465  0.10072386  0.60842858  0.        
  2.65040420e-02   7.92563767e-02   4.89910979e-01   6.64045300e+06
 -5.73515770e-02   4.49576200e-02   5.73588198e-01   1.59108210e+07
 -5.35891260e-02   2.52002396e-03   5.47780589e-01   1.51236240e+07
 -6.03117111e-02   1.46277961e-01   6.33971762e-01   1.29560740e+07
  1.90874996e-01  -2.96325826e-01   6.48501912e-01   2.71686900e+06
 -5.72714651e-02   6.74421900e-02   5.87208870e-01   1.47944000e+07
 -8.90730745e-02   1.62528251e-01   6.41510838e-01   8.94218100e+06
 -8.67862673e-02   2.37967429e-02   5.65430430e-01   1.46635900e+07
  7.90760573e-02  -2.76489657e-01   6.20535444e-01   1.48604530e+07
 -8.82116632e-02   1.22477033e-01   6.19932468e-01   2.49782400e+06
 -9.24052730e-02   2.45839834e-02   5.67215983e-01   1.47946620e+07
 -5.24450594e-02   6.80338366e-02   5.87370716e-01   1.47288590e+07
 -1.34962292e-01   6.52333559e-02   5.90350151e-01   1.44656870e+07
 -6.24809977e-02   4.33408191e-02   5.73292893e-01   1.48599320e+07
 -6.06929654e-02   1.43555675e-01   6.32572496e-01   1.33503140e+07
 -1.10597253e-01   6.61451978e-02   5.89893810e-01   1.46623010e+07
 -3.73024415e-02   1.09701992e-01   6.12171429e-01   8.15807300e+06
  1.93209870e-01  -2.96359394e-01   6.49721594e-01   2.97952300e+06
 -4.83224124e-02   1.43449052e-01   6.23840253e-01   1.49902350e+07
 -3.94288763e-02  -2.87577235e-01   5.77654006e-01   1.64415410e+07
 -8.28625088e-02   6.58810975e-02   5.88112159e-01   1.43993810e+07
 -7.38672899e-02   1.55242426e-01   6.38257802e-01   1.96866000e+05
 -1.25542608e-01   1.02480035e-01   6.07290953e-01   8.80956700e+06
  1.60119247e-02   2.09581526e-01   6.74396288e-01   7.23283500e+06
