# .PCD v0.7 - Point Cloud Data file format
VERSION 0.7
FIELDS x y z
SIZE 4 4 4
TYPE F F F
COUNT 1 1 1
WIDTH 1177
HEIGHT 1
VIEWPOINT 0 141368 4.58869e-41 0 0 141368 4.58869e-41
POINTS 1177
DATA ascii
-0.021685624 -0.067529455 0.73036784
0.054773338 0.067262389 0.1600925
0.066340223 -0.11759061 0.52207929
0.0056817895 -0.089025863 0.67096829
-0.0099098012 -0.070302784 0.72562623
0.010409818 -0.080684662 0.71900296
-0.020696744 -0.064487092 0.73328483
-0.0121876 -0.073069535 0.71637011
0.058921963 -0.10623419 0.50771463
0.061227191 -0.11030365 0.51448882
-0.019719925 -0.063583061 0.7355634
0.061231785 -0.11030703 0.51448053
-0.026902931 -0.067510076 0.71692508
0.046525788 -0.11276989 0.6237554
0.053706363 0.03574897 0.21789606
-0.024854569 -0.068545565 0.72225964
-0.04089871 -0.092159405 0.62864733
-0.013965595 -0.07525368 0.70892346
0.007656232 -0.086197011 0.69081086
0.060045261 -0.1094821 0.51596135
0.044885166 -0.11033897 0.66986692
0.0612287 -0.12424562 0.60695666
0.041070282 -0.10856348 0.62909865
0.065533489 -0.11006796 0.49612239
-0.00092500291 -0.06258627 0.75293535
-0.00082823844 -0.062937178 0.75291777
-0.021281233 -0.081533492 0.68477696
0.045736041 -0.11219641 0.62464589
-0.038929377 -0.091702931 0.62259203
-0.020507295 -0.080878466 0.68743962
0.010623385 -0.078138731 0.52442437
0.046615168 0.032682911 0.24149185
0.010820935 -0.078177683 0.52414775
0.04572916 -0.11216422 0.62466234
-0.0058263857 -0.066897295 0.73756635
-0.0028154959 -0.090182774 0.62144357
0.058018297 -0.10732442 0.51526886
-0.028930329 -0.072170675 0.7129001
0.050201245 0.089013159 0.14010288
0.05174588 0.054148328 0.19222884
0.037456982 -0.10610031 0.64431834
-0.00084358739 -0.062917218 0.75292325
0.051057041 0.064596787 0.17747924
0.0096825669 -0.075928502 0.73455155
-0.022659859 -0.082374796 0.68059236
0.06235097 -0.11388862 0.52435029
0.0074429857 -0.086631 0.68796462
0.046563182 -0.10887968 0.58155942
0.009708371 -0.075862706 0.73453629
0.049307004 0.08254534 0.15360215
0.050295562 0.089068599 0.13995171
0.039686535 -0.10792711 0.63699198
-0.023465669 -0.085840844 0.66279811
0.051758457 0.061632071 0.18001656
-0.0063852263 -0.085563652 0.6730876
0.049416721 0.083276488 0.15211724
0.051666092 0.061657965 0.18007891
-0.0032449502 -0.06242235 0.75143486
0.037640125 -0.10646388 0.64411414
0.040799018 -0.10869481 0.62736821
0.037111066 -0.1062937 0.63423592
0.0084892446 -0.078067102 0.72403705
-0.0027816335 -0.090367161 0.62132984
0.046935428 -0.10909641 0.58126962
0.058754709 -0.12185401 0.60687989
0.055831943 0.010454565 0.25563416
-0.023424789 -0.085874744 0.66276681
-0.016203685 -0.075225078 0.70783836
0.043337625 -0.11060157 0.63697678
-0.041243531 -0.092356503 0.62447321
-0.012406965 -0.054718561 0.75765669
-0.027808215 -0.0687031 0.72139782
0.062582389 -0.1197819 0.5513972
0.0021322176 -0.088736728 0.66378397
-0.030998532 -0.089684404 0.61901176
-0.023548782 -0.083191216 0.677899
-0.032026503 -0.09035264 0.6259678
0.043343235 -0.11017548 0.61911452
0.047344703 0.030080339 0.24415562
0.035800736 -0.10548391 0.63837761
0.0050603654 -0.089700952 0.66386873
-0.0030198924 -0.062760085 0.75099355
0.0065340195 -0.068538859 0.74921298
-0.0040827533 -0.080555551 0.69910961
-0.0037608857 -0.089194149 0.60257292
0.044179205 -0.11077125 0.61788863
-0.0032664314 -0.089292131 0.60330796
0.061817251 -0.10843654 0.50491279
0.047549307 -0.10954173 0.58063972
0.0018479477 -0.08859659 0.66538519
-0.0014213349 -0.090338551 0.62509733
-0.01874066 -0.062248681 0.73858392
0.048812229 0.028513173 0.24328338
-0.018645985 -0.062240668 0.73854369
0.0052127563 -0.085986041 0.68694389
-0.0062199072 -0.055802468 0.76230061
0.052725364 0.063294217 0.17429836
-0.0030402644 -0.089547321 0.60883504
-0.0023821814 -0.059936147 0.75799584
-0.017162153 -0.088370606 0.60785681
-0.027187224 -0.085965574 0.66386133
0.046568088 0.040983059 0.22800313
-0.0036372195 -0.089536078 0.6097104
-0.017123222 -0.088369451 0.60782707
-0.04247015 -0.092296161 0.634803
-0.040971156 -0.078933768 0.69840169
-0.018319316 -0.061941281 0.7394163
0.041250151 -0.10902828 0.63202846
-0.017557437 -0.08204671 0.68314368
-0.013461196 -0.082909621 0.68169767
-0.0049119373 -0.086341091 0.67021608
0.0015895644 -0.088476069 0.66727704
-0.023880787 -0.071081899 0.71690333
-3.2015778e-05 -0.090088062 0.60853338
0.00037550039 -0.088577285 0.66304219
0.046394527 -0.1123791 0.61872131
0.0050458275 -0.089585841 0.66389805
0.04871466 0.027990503 0.24411491
0.042806506 -0.11018594 0.63369423
0.049654536 0.071315765 0.17069869
-0.018291343 -0.0618429 0.73939806
0.045833874 0.047977332 0.21836415
-0.0029086135 -0.059715904 0.75804812
-0.043481126 -0.092891082 0.63188118
0.061318524 -0.057343155 0.37050551
-0.0041524279 -0.089144059 0.60216057
-0.023163022 -0.081367128 0.68529004
0.059358403 -0.062948182 0.38831332
0.044450041 0.053787977 0.21253633
0.0087513588 -0.076846145 0.7299735
-0.026274759 -0.086764589 0.66071934
-0.038531691 -0.078483984 0.69875693
-0.008763467 -0.066735722 0.7358011
0.001109477 -0.11553841 0.72963595
-0.032620139 -0.075578243 0.70439798
-0.0081298118 -0.070346661 0.72716689
0.027170926 0.1080022 0.16068432
0.059769522 -0.10082079 0.48569259
0.060019437 -0.10231031 0.4898867
0.054759033 0.042380467 0.20325284
-0.012597411 -0.055129055 0.75714034
0.068870991 -0.13111024 0.68421263
-0.012325908 -0.088346146 0.60510993
-0.03267369 -0.076007128 0.70386922
0.04301599 -0.10537943 0.57485956
-0.01708971 -0.088801675 0.63081974
0.045833424 0.039699107 0.23185532
-0.023149086 -0.066051185 0.73312503
0.0029950931 -0.069269739 0.74240339
-0.0018710649 -0.080479339 0.70169938
0.07418827 -0.13846417 0.67226857
0.048804406 -0.11110982 0.5856117
0.0077417088 -0.070305429 0.7465924
-0.01413363 -0.055368029 0.75586158
0.0016967434 -0.063554168 0.75465524
0.00067989499 -0.090607792 0.61603332
-0.015059495 -0.079222806 0.69579035
-0.01949521 -0.081692331 0.68438172
0.010843331 -0.071825512 0.74768955
-0.014106339 -0.081916876 0.68514562
-0.027541723 -0.08726719 0.65830988
-0.043698926 -0.092929035 0.63090962
-0.01030265 -0.089147776 0.63606769
-0.010069474 -0.060085136 0.75014317
-0.0022022622 -0.068097569 0.73793685
-0.016000733 -0.059791211 0.74618429
0.0090203835 -0.077768043 0.72685492
0.0053966693 -0.084466554 0.69533938
0.0037698434 -0.074739836 0.72739559
-0.043596834 -0.092997655 0.63078165
0.0034950909 -0.069286287 0.74310255
-0.02137091 -0.080898449 0.68676925
0.05633812 -0.01371727 0.29852447
0.062009733 -0.11835977 0.54681075
-0.027963366 -0.068798736 0.72226799
0.0027979605 -0.069338523 0.7423113
0.045785923 -0.11238579 0.62889171
-0.0012893133 -0.088646598 0.59442329
0.0010509022 -0.084104419 0.68972027
-0.010053284 -0.073982023 0.71563792
0.035677664 -0.10450401 0.61012632
-0.036462657 -0.081734851 0.68782717
0.04028707 -0.10594302 0.68139309
0.035545286 -0.10523275 0.64513528
-0.022746019 -0.087649159 0.65267795
0.058620311 -0.071805194 0.41072097
-0.0026991516 -0.081795439 0.6949352
0.044164598 -0.11137529 0.63074458
0.060284603 0.065160923 0.13322011
-0.0091993455 -0.079413965 0.69857448
0.061960343 -0.11642791 0.53743809
-0.017569695 -0.061660275 0.74012601
-0.038946088 -0.091765895 0.61410397
-0.0054526916 -0.065705396 0.74065793
0.032225754 -0.10930059 0.73548222
-0.028603958 -0.08873985 0.64594328
-0.033305351 -0.07445924 0.70725924
0.061760016 -0.12441517 0.60117173
-0.012970963 -0.055335503 0.75668466
0.030624118 -0.101423 0.61291325
0.045760531 -0.11227734 0.62894481
-0.00086423516 -0.085439198 0.68500113
0.00059254846 -0.086327717 0.67783713
0.039929751 -0.10678053 0.60601902
0.049572643 -0.11490376 0.61876893
0.0020623629 -0.089714222 0.59738016
-0.02484457 -0.088905215 0.63206649
-0.0055647888 -0.061007962 0.4840301
0.060241647 0.064817138 0.13465053
0.040258456 -0.10713142 0.60566354
-0.010760886 -0.084470361 0.67551345
-0.043517604 -0.092403084 0.63768953
-0.0055160648 -0.061011408 0.48400921
0.050518133 0.022852065 0.24863951
-0.014286333 -0.080148384 0.6907621
0.0032706698 -0.087166689 0.67708379
-0.01035011 -0.068693832 0.72946072
0.034080483 -0.097102173 0.55971581
0.0092491359 -0.074400559 0.73826522
0.070859507 -0.12535885 0.67462885
-0.030271586 -0.076123767 0.70288688
-0.0011769169 -0.089434087 0.60067755
0.055757541 -0.034069631 0.33803648
0.028017597 0.10558482 0.162737
0.0044049462 -0.085096933 0.6901722
-0.017726008 -0.088702314 0.61367702
0.057173442 -0.036606994 0.3402198
0.052425537 -0.060526714 0.40091291
0.06262619 -0.10596226 0.49293035
-0.01528345 -0.059041426 0.74809194
0.044380918 -0.10741591 0.58300465
-0.014783451 -0.088435188 0.64213639
0.00058212201 -0.053659212 0.77149189
-0.031833839 -0.078763165 0.69544876
-0.04636522 -0.09410806 0.62829798
-0.0050677261 -0.051332057 0.46037689
-0.0057352437 -0.090378977 0.6215018
-0.045091521 -0.093695544 0.62688416
-0.0002572271 -0.0832486 0.55635399
0.067112096 -0.11755405 0.51826549
0.05581164 0.070776783 0.14957817
-0.03107045 -0.072576828 0.71211588
0.011851055 -0.090705208 0.67212403
-0.015471831 -0.088465922 0.64158702
0.0051901308 -0.070424996 0.74214113
-0.0045627905 -0.089734912 0.63316858
-0.00062320236 -0.085821718 0.67889732
-0.018962605 -0.069368102 0.721784
-0.022054365 -0.074657843 0.70734286
-0.016995188 -0.065198004 0.73408711
0.050825045 -0.11318216 0.58957297
-0.0098492317 -0.092792831 0.61825854
-0.015503681 -0.088558316 0.64157933
-0.04282219 -0.09220583 0.63716465
-0.051997431 -0.040361501 0.73737282
-0.0016241501 -0.087879963 0.58641446
0.034266554 -0.10440298 0.64422899
0.0049058441 -0.011451497 0.37798646
0.0057787448 -0.070618495 0.74260145
0.0052029015 -0.07054399 0.74214107
-0.0032883084 -0.085223652 0.68001896
0.0096939048 -0.08678703 0.69269335
-0.032145895 -0.08763022 0.65884721
-0.0048405947 -0.089326903 0.60842782
-0.01283634 -0.069507286 0.72554481
0.00046415668 -0.068832189 0.73965496
-0.0015354953 -0.089504622 0.6039505
0.012071363 -0.077999532 0.73077297
0.053374242 0.075302422 0.15179206
-0.035500553 -0.076205611 0.70413744
0.059930369 0.063088961 0.14128089
-0.02896487 -0.088283002 0.64966667
-0.0053097787 -0.058508322 0.75817931
0.060019642 0.064031169 0.13991928
-0.025950192 -0.083487026 0.67688233
-0.055000853 -0.04010585 0.73747838
-0.0044835322 -0.085770346 0.67247003
-0.014114615 -0.077741385 0.7002728
-0.029436113 -0.076242186 0.70192158
-0.032043356 -0.088784434 0.65056872
0.056147363 -0.045582373 0.36098558
0.011576747 -0.077531233 0.73201132
0.048114747 -0.11395528 0.62450296
-0.022333965 -0.083867908 0.67454356
0.0071218661 -0.077634245 0.72352815
0.052637599 0.049228899 0.19836587
0.032704763 -0.095887534 0.55735976
-0.0098399539 -0.065433152 0.73771131
0.04914527 -0.11467547 0.65267217
0.053900499 -0.061543077 0.39969316
0.0020493707 -0.089462869 0.65835762
-0.016773749 -0.072118722 0.71732771
-0.0097043905 -0.065894105 0.73767596
0.061876461 -0.053555824 0.36090115
0.0080529759 -0.076141164 0.73002803
0.049679879 0.0075482936 0.27707648
0.011897292 -0.06812346 0.75993562
0.0051718974 -0.086935967 0.6827907
0.062367942 -0.053284157 0.35954395
0.05156232 0.073065624 0.16196604
-0.036792744 -0.090657428 0.60482883
-0.019426847 -0.082367785 0.68160623
-0.025053743 -0.084621526 0.67117369
-0.027835259 -0.089007922 0.64296436
-0.00071530009 -0.08665207 0.67409438
0.052891366 0.076329917 0.1517715
0.048769597 -0.11411238 0.61595243
0.01225907 -0.073780276 0.5070377
-0.0038589577 -0.088454336 0.59529537
-0.0011618654 -0.088174045 0.66273445
-0.018214496 -0.070964202 0.7187981
0.032140192 -0.10255991 0.61207253
-0.032500155 -0.090056524 0.63431901
0.0030174344 -0.091086417 0.61454403
-0.0054620514 -0.047073163 0.48614502
0.0015541738 -0.065546766 0.75040871
0.043285366 -0.11044639 0.62556648
-0.0072954418 -0.069451705 0.72987151
0.050097767 -0.024750646 0.33395851
-0.013876528 -0.066372357 0.73295969
-0.074054018 -0.070902072 0.71580768
-0.036028713 -0.075375125 0.70567977
-0.00918156 -0.078598805 0.69936758
-0.00453889 -0.080615617 0.54804254
-0.039216228 -0.083667308 0.68282616
0.005127559 -0.077785999 0.7207374
0.047757875 -0.11338466 0.61721426
-0.013594419 -0.087457821 0.59618771
-0.013391671 -0.088044249 0.64698899
0.046157915 -0.11186364 0.6116612
-0.01418497 -0.08904957 0.61923057
0.006080043 -0.087586299 0.68009853
-0.050267022 -0.041456159 0.73633975
0.015245845 -0.094276652 0.65300399
0.0054479162 -0.071735531 0.73960507
-0.074021265 -0.071118392 0.71582586
0.04796068 -0.0090728626 0.3104755
-0.017267527 -0.088573493 0.61416757
0.0016054399 -0.071448646 0.73405987
0.047823288 -0.11345587 0.61714804
-0.017894022 -0.089049563 0.62634414
-0.035969101 -0.09025836 0.60229105
0.026488781 0.092799231 0.18390876
0.049086921 -0.11195254 0.59120762
-0.0013031667 -0.088313676 0.66205657
-0.012748283 -0.067884058 0.72903496
-0.010642763 -0.088716574 0.63944715
-0.0005886057 -0.064699478 0.74926817
-0.010861594 -0.089215286 0.63252789
-0.044249855 -0.035669807 0.74502224
0.0058754524 -0.087631658 0.67980534
0.010755923 -0.087541856 0.69067919
-0.0017688756 -0.050845031 0.77369958
-0.031628702 -0.088875867 0.64938128
-0.020494372 -0.083231956 0.67777437
0.0043838024 -0.075002827 0.7274031
-0.047383282 -0.036917496 0.74320769
-0.027905928 -0.086853653 0.66072094
-0.024000118 -0.079877362 0.69173819
-0.0095608598 -0.08936844 0.63167828
-0.010550403 -0.057870835 0.75402278
-0.015465181 -0.088688023 0.63976377
-0.003312147 -0.089896545 0.61451137
-0.023018626 -0.08749368 0.59433341
-0.013523875 -0.087465666 0.59458816
-0.0029205901 -0.087873541 0.66355878
0.0032035541 -0.090413332 0.6026597
-0.030510429 -0.077635311 0.69826585
-0.021656448 -0.076738819 0.70158589
-0.0068326336 -0.089680552 0.62642622
-0.01479577 -0.078533359 0.69811535
0.014114439 -0.078076668 0.51936918
-0.026407998 -0.080469444 0.68952382
-0.020004323 -0.078058124 0.69756329
0.056552559 -0.10602702 0.5155859
-0.023175482 -0.080735795 0.68792754
0.061659291 -0.12011955 0.5584209
-0.042011 -0.079906903 0.69659883
-0.0083352886 -0.076880425 0.70781118
0.052967403 -0.11467106 0.5869444
0.046264861 -0.11206371 0.66083145
-0.0055169393 -0.082725026 0.5589183
0.023358548 0.096410036 0.1832751
-0.047654491 -0.034467328 0.74626184
-0.012011269 -0.087267727 0.59195131
0.050306529 -0.023969596 0.33250415
-0.0061463555 -0.080268241 0.54753488
0.021376474 -0.096012637 0.66542482
0.050582942 -0.0069179856 0.30072087
-0.020068297 -0.083886459 0.67334509
-0.055263795 -0.039548755 0.73858637
0.048635796 -0.011557218 0.3134284
-0.020120559 -0.083792791 0.67338639
0.0086147636 -0.090476386 0.66450751
-0.030836994 -0.080132835 0.6909737
0.055854116 -0.043674573 0.35785526
0.0025148403 -0.086873017 0.57397234
-0.029652869 -0.077878252 0.69766623
-0.036322173 -0.073817536 0.71039975
0.0031924648 -0.084280476 0.69369763
-0.022269325 -0.064387478 0.73260391
-0.030919012 -0.088306509 0.65202206
-0.075467184 -0.077303641 0.70868468
-0.0079529369 -0.089248277 0.63543808
0.050627712 0.03074253 0.2348959
0.011675785 -0.083184548 0.71192521
0.026273934 -0.099665195 0.64796352
0.055635955 0.026593594 0.22782566
0.032095198 -0.10289657 0.61996901
-0.024166923 -0.087427758 0.59407485
-0.019707818 -0.077008039 0.70134777
-0.0046770219 -0.059984878 0.75612533
0.050776772 0.030888706 0.23451485
-0.0017153263 -0.060532115 0.75334269
0.063078061 -0.12595022 0.6041953
-0.046374593 -0.091042235 0.57741314
0.037917361 -0.10652754 0.62201476
0.059053391 -0.12132897 0.59756237
-0.0056104837 -0.08321929 0.68569785
-0.027329175 -0.080536358 0.68859655
0.0020095806 -0.083454832 0.69372803
0.053592142 -0.064120218 0.40609065
0.0060003917 -0.07184045 0.74055052
-0.048287127 -0.089361586 0.56601876
0.066856734 -0.12130284 0.53626961
0.010255023 -0.069160514 0.7552852
-0.0013023881 -0.073122405 0.7278176
-0.0077210311 -0.088384598 0.59998256
0.06177251 0.086535625 0.14595237
0.049001236 0.091239899 0.14108877
0.059343081 0.059262056 0.15372249
-0.0051774643 -0.081293121 0.69373959
-0.001618853 -0.053899363 0.76859701
-0.0095522664 -0.089407623 0.63165706
0.044914834 -0.11179411 0.63696158
-0.0029233301 -0.081440784 0.55071324
0.01724837 -0.063020021 0.7647016
0.013437078 -0.05802976 0.46017545
0.029187441 -0.10139203 0.64003432
-0.04460163 -0.0836059 0.54897881
-0.023842745 -0.078066833 0.69699711
0.02246636 -0.068883672 0.7608285
0.059205286 0.015441172 0.23605372
-0.020576768 -0.088450648 0.60669315
0.017175358 -0.090442091 0.6908884
0.054424148 0.029072635 0.22716285
0.0587673 0.033379283 0.20512466
-0.020357501 -0.061570179 0.73971045
0.016927943 0.074748725 0.22388037
0.00068628014 -0.081265867 0.70060003
-0.0017874266 -0.089959562 0.63231325
0.011467542 -0.056271225 0.77024215
-0.020124519 -0.08363536 0.67514312
0.050589453 -0.11561807 0.6179871
0.058412474 0.018313704 0.23359522
0.036378805 -0.097569317 0.5545401
0.049240742 0.056207512 0.19656111
0.05220326 -0.012074381 0.30614769
0.055004418 0.02223555 0.23740712
-0.0095936963 -0.089228936 0.63335729
0.037939623 -0.10552792 0.60351473
0.010433493 -0.089165255 0.68010163
-0.013782213 -0.085195951 0.61287481
-0.018779198 -0.076504707 0.70343536
-0.074117884 -0.076569051 0.70834333
0.050429624 0.03804858 0.22328003
-0.0028059825 -0.089920186 0.635144
0.040009357 -0.10782545 0.61738247
-0.0035562303 -0.056621537 0.76302981
0.052119989 -0.01616009 0.31385109
0.046675071 0.056178339 0.20329382
-0.027482161 -0.083285145 0.67855281
0.056054875 -0.10280605 0.50529408
0.048948932 0.014532859 0.26668277
-0.0012197761 -0.08741381 0.6700058
0.0044234609 -0.091164023 0.60936892
-0.005008731 -0.081711628 0.69362783
0.047054227 -0.10759738 0.56941539
0.0016364807 -0.06574937 0.75038409
-0.0068696719 -0.086064108 0.66881001
0.003537385 -0.090149164 0.59723824
0.014354703 -0.083533242 0.71577221
0.055934247 -0.091823667 0.46990338
0.050798152 -0.11357287 0.59305948
0.0044058608 -0.088609651 0.58352685
0.058878269 0.05779526 0.15889266
-0.031724297 -0.076235786 0.70232743
0.036589283 -0.096914433 0.55020815
0.054231912 -0.11768586 0.60116756
-0.05632006 -0.042299878 0.73496354
0.046690378 -0.0083043985 0.31202573
-0.0034772931 -0.085788175 0.67351604
0.028548703 -0.098953687 0.6752795
0.052266363 -0.011880315 0.30578136
0.05220484 -0.016150933 0.31371063
0.024184646 -0.095972851 0.67911029
0.04704852 -0.10753764 0.5694924
0.042611606 -0.10848945 0.67250645
0.018466916 -0.078282185 0.5134775
0.049164627 -0.036748547 0.35896489
-0.030007478 -0.080926396 0.68802202
0.0075853779 -0.091252685 0.65515393
-0.0015656481 -0.083218679 0.69053876
0.0511606 0.040671155 0.21690117
-0.020999439 -0.088603109 0.63569385
0.030008839 0.080414236 0.19694467
0.044497211 0.028688852 0.25283116
-0.030005369 -0.040326338 0.76485467
0.0070376368 -0.07425794 0.51401091
0.053579029 -0.09682522 0.49255285
0.0074274205 -0.069009222 0.7496621
0.049327549 -0.036747601 0.35870677
-0.061704908 -0.064027242 0.7145943
0.062477142 -0.12452835 0.59164363
-0.025062455 -0.089154691 0.63574618
-0.022405475 -0.084572271 0.67177796
0.052532438 -0.013724281 0.30837119
-0.0038824447 -0.049859811 0.77322239
0.0088523887 -0.076457962 0.73023063
-0.043137018 -0.033958133 0.74784255
-0.046377905 -0.093092591 0.64269644
-0.019434758 -0.086844973 0.65584821
-0.0013631118 -0.051454309 0.77280885
0.05397452 -0.097152367 0.49244764
0.059201103 0.019451903 0.22877403
0.078787982 -0.1441073 0.63106847
-0.010155761 -0.050737865 0.72316504
0.061766095 -0.048819713 0.35096505
0.058551367 -0.11047643 0.52595478
0.0045973319 -0.091391869 0.60912031
0.0076084132 -0.09102954 0.65519214
-0.0066041648 -0.077354454 0.70718729
-0.0083784023 -0.087694615 0.65643233
-0.033287991 -0.089087427 0.64838552
0.0055642664 -0.066816419 0.75187343
0.05722997 -0.094060279 0.47268265
-0.031419042 -0.083630398 0.67786574
-0.029591702 -0.08904323 0.64396685
0.0089050895 -0.080853127 0.71576798
-0.0035764945 -0.087151244 0.66671675
0.047666088 -0.074710123 0.44304582
0.04240096 -0.1035516 0.56604707
-0.019628249 -0.086855516 0.59033674
0.0033852067 -0.084315658 0.69221306
0.071744211 -0.12061113 0.50830096
-0.0072308346 -0.077968501 0.53850818
-0.025802812 -0.075992949 0.53249574
-0.0034206973 -0.083640419 0.56214935
-0.0158033 -0.064321488 0.73623037
0.063071474 -0.12225676 0.56817621
-0.023541229 -0.072902285 0.71168333
0.00041960925 -0.084827237 0.68610889
0.0013522744 -0.068709932 0.74214172
-0.022348717 -0.078109823 0.69731319
0.048197202 -0.00095261243 0.29548776
0.0086902855 -0.090868451 0.66501123
0.053789627 -0.013413344 0.30484131
0.037927087 -0.098566927 0.5544154
0.061516669 0.055804644 0.14534056
0.055236828 -0.11644126 0.58441645
0.028559837 -0.063388087 0.45285618
0.026666574 -0.10006072 0.62448633
-0.011063821 -0.06591595 0.73531514
-0.014755995 -0.053143583 0.75907773
-0.030699968 -0.083870672 0.67648977
0.064074866 -0.12622954 0.59215945
0.049480256 0.043618824 0.21639165
0.021193417 -0.095383793 0.66984695
-0.037951626 -0.086500756 0.66715437
0.069841288 0.012311282 0.18668526
0.022936396 -0.094068617 0.68757623
0.051839512 -0.0070144138 0.29783183
-0.023352193 -0.078633144 0.69440794
0.022528181 -0.096502118 0.66604853
0.045891799 -0.10670044 0.56926966
0.0098034758 -0.063059181 0.75496918
-0.0030053374 -0.08317554 0.68738228
0.055712689 -0.10310616 0.50758678
-0.0033895869 -0.083665617 0.56206834
0.063657135 -0.12211473 0.55880046
0.059854761 -0.083218031 0.43493322
0.0054244725 -0.066379562 0.75365931
0.063299261 -0.011125769 0.27157336
-0.006628661 -0.077634923 0.70719439
0.03287952 0.091674894 0.1753591
0.0022995765 -0.087349534 0.57768673
0.058633205 -0.11187182 0.53158718
-0.0030548687 -0.082503624 0.69140178
0.062297441 -0.010875788 0.27492055
-0.0054588742 -0.086485676 0.5802862
-0.0048544877 -0.08213231 0.69352204
0.042566787 0.03520114 0.24607444
0.0042106672 -0.084276579 0.69404048
-0.0068724551 -0.086881988 0.66423136
0.061197557 0.060250785 0.13698071
0.023268949 -0.094969712 0.58036149
-0.023885198 -0.075491816 0.70459425
0.023366153 -0.094243847 0.68739122
0.062232397 -0.12280787 0.57680124
-0.045627899 -0.087826364 0.56309623
0.050559845 -0.11329806 0.59245557
0.038132012 -0.10372928 0.68669212
0.0046113846 -0.074134983 0.51598948
0.018591803 -0.095411062 0.65504521
0.060957987 -0.11980023 0.56088167
-0.022161195 -0.07565511 0.70468235
0.048656236 -0.050256304 0.38768759
0.049883734 -0.000944181 0.29156142
0.0046595009 -0.075633749 0.5211575
0.05465648 0.051042575 0.18868704
-0.0054097082 -0.089773305 0.62177122
-0.030316055 -0.086186379 0.6658594
0.052935101 -0.11651666 0.60340077
0.0084602712 -0.070339508 0.49993506
0.013640742 -0.069307148 0.49054757
0.00080577604 -0.090772234 0.63295221
0.007693632 -0.076534554 0.72832924
0.051809829 -0.052498192 0.38535583
-0.012730359 -0.088621728 0.6101312
0.04522365 0.060241546 0.19978327
0.02812377 -0.089973085 0.54107887
-0.021140784 -0.089108124 0.62933165
0.032595579 -0.10337756 0.64366144
0.060511053 0.055924196 0.15165497
0.0087428624 -0.089042015 0.67771208
0.051811215 -0.0072362036 0.29818282
0.061030991 0.03960957 0.18210213
0.019133635 -0.087044135 0.7134499
-0.039635312 -0.028952546 0.75583893
0.0013848398 -0.090167917 0.64885479
0.055140167 -0.078957647 0.4372285
-0.0053838999 -0.079286858 0.70295352
0.064038478 -0.1260924 0.5922606
0.013545922 -0.069344133 0.49086833
-0.04638752 -0.09483698 0.61549139
0.025646113 -0.098445497 0.6627844
0.0050475975 -0.077023678 0.52674389
-0.0050510634 -0.077026248 0.71024686
-0.015631095 -0.056267552 0.75432682
-0.026290644 -0.079085961 0.69322515
0.044326808 0.020062458 0.26768166
-0.028774394 -0.083945908 0.67638242
0.061097246 -0.022616034 0.30170187
0.013900692 -0.07346449 0.50367898
0.059100047 -0.078169756 0.42441368
-0.0086735915 -0.074103385 0.69297951
-0.019097889 -0.083012812 0.6790548
0.056627154 -0.056679245 0.38278642
0.055947751 0.055598024 0.17689615
0.046732824 0.0030297365 0.29170093
0.021871679 -0.095391497 0.67185491
0.021455446 -0.068108752 0.76046401
-0.080856964 -0.083877519 0.70396513
-0.030319186 -0.08643502 0.66582608
0.052601438 -0.070557758 0.42339024
0.021799959 -0.095490091 0.67103332
0.062386449 -0.12426715 0.59185064
-0.041339569 -0.040236674 0.7395736
0.056572948 -0.036274876 0.34142813
0.061276358 0.056831043 0.14472307
0.069735214 0.012540705 0.18823758
-0.0062332079 -0.047686115 0.77507925
0.068381935 0.022099977 0.17111155
0.064328723 -0.014678617 0.27500749
0.069427721 -0.1059094 0.46723473
0.058237087 -0.12311559 0.58997017
0.031944063 -0.095577151 0.56608534
-0.040393341 -0.091743767 0.63339663
0.060731508 -0.12302779 0.59734774
-0.046380792 -0.093407251 0.63955086
0.0049527711 -0.087829642 0.57644379
-0.01379262 -0.085900426 0.58135349
-0.00055258168 -0.081937402 0.55106038
0.032895725 0.062295362 0.22048588
-0.0018065898 -0.073667295 0.72420037
-0.031065889 -0.08145456 0.68631512
0.047758732 -0.043596923 0.37531427
0.029054748 -0.10000037 0.59995854
0.050078407 -0.0047524497 0.29802641
0.050908122 -0.05462189 0.3912988
0.053796183 -0.074803986 0.43050304
0.054476708 -0.088551573 0.46462885
-0.027090935 -0.089478329 0.62009668
-0.031777591 -0.082161382 0.68419623
0.053986434 0.027121399 0.2318531
0.0092066117 -0.082063757 0.71195775
-0.001425541 -0.083778359 0.56074196
-0.018813813 -0.084444553 0.5848937
0.084855959 -0.15203646 0.61322284
0.059318118 -0.077156581 0.42122775
0.039156105 -0.10549225 0.67913228
0.019097732 0.06427405 0.23689556
0.021958981 -0.095657438 0.67176569
-0.022107439 -0.07154347 0.51896894
0.061935883 -0.1043477 0.4899061
0.020141447 -0.093525983 0.68134147
0.049602855 3.7031943e-05 0.29052427
0.065050475 -0.11662943 0.52387804
0.061157711 0.021665288 0.21741189
0.00088624354 -0.087581955 0.67150265
0.01541203 -0.083766803 0.71773553
0.062546156 0.050134018 0.14921123
-0.037787437 -0.030039826 0.75581157
0.0049807401 -0.064435296 0.7537241
0.012908009 -0.04884297 0.43897769
-0.0038124572 -0.08957608 0.64142507
0.044009559 0.013523383 0.27912131
-0.021226265 -0.078284957 0.69675797
0.0025320977 -0.077273697 0.71822459
0.058655754 -0.043730199 0.3503235
-0.0040161177 -0.088107362 0.65972346
-0.0067259357 -0.083282001 0.56271684
-0.0062074191 -0.088951237 0.64512134
-0.028017649 -0.089024536 0.60743952
0.017381642 -0.082709387 0.72428423
0.0050224247 -0.01569826 0.38105142
0.050329477 0.058276545 0.1900886
-0.024793942 -0.075133003 0.70567906
0.05932286 -0.077115759 0.42114356
0.0169186 -0.093068421 0.67067826
0.013768177 -0.047731441 0.43565929
0.067255884 -0.10636412 0.4762893
0.008614785 -0.074515015 0.73619831
0.014541591 -0.062025435 0.46889856
0.00156732 -0.062942065 0.75661367
0.006196456 -0.083022974 0.7029621
-0.0097102253 -0.088315532 0.6480751
0.061526697 0.051874708 0.15407811
-0.084236726 -0.092670642 0.70121723
0.053439558 -0.089434683 0.47002688
-0.056240898 -0.041434184 0.73476565
0.011139911 -0.073169343 0.50589019
0.0020913999 -0.085513212 0.56595904
0.054512978 -0.10437574 0.51641649
-0.0072106668 -0.074710764 0.7152679
-0.01208046 -0.066432156 0.73405254
0.0096126404 -0.083079971 0.71172649
-0.0044151056 -0.072659336 0.72388107
0.059289359 -0.08905641 0.45200381
-0.0067068553 -0.078374825 0.70366329
0.026261162 -0.096043468 0.68656898
0.03390016 -0.10423939 0.63771605
0.064680323 -0.12305477 0.55818415
0.0090576652 -0.082781471 0.70861316
-0.089773789 -0.092697628 0.70773965
0.062506512 -0.032263711 0.31578356
0.034140181 -0.08868812 0.51882142
0.064452328 -0.11945736 0.53962475
0.051006828 -0.11591005 0.61619735
-0.028122405 -0.082168549 0.68324089
-0.0072821639 -0.07353615 0.71893579
0.03048622 -0.1020132 0.64782745
0.012488749 -0.089501925 0.68370384
-0.024685467 -0.067939222 0.50858206
0.0087137334 0.00086603715 0.34808731
0.068326354 -0.10861752 0.47942662
0.050969865 9.405132e-06 0.28728327
0.046522889 0.023675367 0.25673419
0.030900793 -0.10114746 0.66785318
0.048726883 0.0089260153 0.27754745
0.05234943 0.019628404 0.24943228
0.022458762 -0.096866541 0.66034395
0.013491778 -0.083597332 0.71450913
0.0058479458 -0.06339179 0.76073289
-0.047143724 -0.095438763 0.61875713
-0.046173584 -0.094516754 0.60959494
-0.029569512 -0.077630781 0.53670698
0.060683399 0.056753621 0.1503261
0.059867945 -0.091320872 0.45661673
0.0059656333 -0.063810214 0.76071203
0.062923513 0.023831217 0.20428829
0.0034363226 -0.081618637 0.70440835
0.029672742 -0.10003884 0.67127961
-0.044088028 -0.088914819 0.56970108
0.061725587 0.010691783 0.23515798
0.023786791 -0.093543477 0.69394225
0.030772135 -0.10165513 0.65844423
0.07047563 -0.12258756 0.52344257
-0.043320183 -0.089258105 0.5729202
0.025301067 -0.094596513 0.69157177
0.061536279 -0.086302862 0.43819308
-0.021422699 -0.087684475 0.58341086
0.0058965832 -0.064848542 0.75840735
0.0060090679 -0.092114493 0.62758952
-0.02051867 -0.075336948 0.70587873
0.010275751 -0.084005624 0.70572305
0.032321375 -0.10335176 0.63329196
-0.0084579652 -0.058710329 0.75387293
-0.021298647 -0.087724045 0.58321488
0.05710208 0.033307161 0.21127985
0.029732708 -0.10082396 0.6643135
-0.027920811 -0.089085169 0.60730314
0.033343762 -0.094930619 0.54953933
0.0024305244 -0.088479958 0.66748667
-0.010245347 -0.049106181 0.76926404
-0.042859077 -0.093404658 0.61631101
-0.024631213 -0.067908034 0.50847083
0.062183734 0.025527468 0.20519198
0.06364812 -0.12135804 0.55396861
0.014707463 -0.014755705 0.36906192
-0.085946172 -0.089807145 0.70550174
-0.0080938712 -0.08385995 0.56671894
0.013552217 -0.026524024 0.39229053
-0.040551841 -0.086389013 0.562069
-0.0060033384 -0.078054935 0.70463359
0.019253997 -0.095780306 0.65669769
0.010092132 -0.055058818 0.77068067
0.012057734 -0.062483676 0.47345492
0.017255845 -0.095650017 0.61750603
-0.038341597 -0.032070711 0.75153935
0.038826112 -0.10722271 0.6475451
0.064573847 -0.12609363 0.58539969
0.046686821 -0.11313905 0.63554341
0.058527153 -0.08713422 0.4489682
0.018607598 -0.093851246 0.67279667
-0.040530577 -0.097328581 0.61025423
0.010785986 -0.056362234 0.76895279
0.029093649 0.067769803 0.2173067
-0.048396409 -0.093673594 0.58793253
0.03924213 -0.10754475 0.64578146
0.015723996 0.027594613 0.29606155
0.0073109106 -0.012540116 0.37282661
0.012675905 -0.043208309 0.42691678
-0.0037543543 -0.08943592 0.64311492
0.019459268 0.065396704 0.23508222
0.063006699 0.04268036 0.16360942
0.010521084 -0.069879137 0.49618053
0.059050459 -0.10351302 0.49735501
-0.034795925 -0.08758489 0.66238546
0.010485911 -0.069867767 0.49617571
0.014269629 -0.067561448 0.48444042
0.068210319 -0.10505006 0.46839395
0.059058804 -0.020479115 0.30398726
0.057460815 0.033820767 0.20917904
-0.040287524 -0.09179417 0.63186711
0.064724244 -0.12301831 0.55829018
0.034701962 -0.10485443 0.63565594
-0.012363912 -0.084753357 0.57381868
-0.048199933 -0.095394261 0.62146676
0.025499512 -0.09928149 0.6464408
0.064585581 -0.099007845 0.46327892
0.061954003 -0.025010113 0.30449173
0.030945914 -0.10086419 0.59800202
-0.048035465 -0.095357813 0.61005342
-0.0076421979 -0.088387951 0.64962268
-0.034854408 -0.062122688 0.72683489
0.041531339 -0.09306331 0.51551247
0.059525698 -0.015488437 0.29294527
0.053722996 -0.056501865 0.38948706
-0.022776572 -0.013464672 0.79152793
0.060809903 0.015941607 0.22866961
-0.044271715 -0.093773484 0.6138829
-0.035771038 -0.082780972 0.68354976
0.018708359 -0.075645588 0.50395894
0.024851151 -0.097225077 0.67104381
0.058597233 -0.078777924 0.42136687
-0.0010012719 -0.077978991 0.71150112
0.014225518 -0.094440691 0.63992625
0.068675034 -0.1217766 0.52957684
-0.019658785 -0.088927083 0.63087428
0.0064307139 -0.090958081 0.59925771
-0.025731895 -0.018760955 0.78064531
-0.011946079 -0.084552333 0.67476285
0.0098741893 -0.092846952 0.61246741
0.056542989 0.034767784 0.21062458
-0.011764152 -0.062993489 0.74141592
0.058893461 0.046991162 0.17915033
-0.030370424 -0.089450747 0.60712641
0.011630573 -0.092210531 0.59748292
-0.021458898 -0.071203001 0.51735568
-0.029100623 -0.089017287 0.60388744
-0.035078421 -0.082848214 0.55352265
0.060468912 0.0020454044 0.25651762
-0.039713424 -0.029534563 0.75597274
-0.038144447 -0.020623058 0.75424576
0.0565085 -0.038033411 0.34485787
0.024779208 -0.09556409 0.6857664
0.078124501 -0.14382316 0.66119927
0.024637589 -0.093376167 0.6976226
0.055350263 -0.10991172 0.53640145
0.061635338 -0.025561657 0.30580708
0.063106582 0.048626959 0.14862293
-0.023771901 -0.086870819 0.5870598
0.02496803 -0.096223161 0.6805011
0.063012145 0.045094639 0.1564931
0.036695689 -0.10433343 0.59888351
0.051383186 0.0061528245 0.27544796
0.064083524 0.037112612 0.17698757
0.062647678 -0.026627159 0.30487266
0.066711448 -0.10547943 0.47625735
-0.081601009 -0.089320108 0.70525867
0.062520564 -0.06497898 0.3837989
0.0653091 -0.10537559 0.48069218
0.061281539 0.062402662 0.13045166
0.07070028 -0.11994778 0.51082891
0.030811526 -0.10186569 0.65764844
0.04694014 0.0043710452 0.28955144
0.030845931 -0.10193068 0.65761483
-0.025554772 -0.074777164 0.51519096
0.062428873 -0.027046483 0.30583629
0.0099488264 -0.065636903 0.48433939
0.064074174 0.034363441 0.17604171
0.016528793 -0.0911064 0.6829859
0.058301508 -0.043287005 0.35046956
0.072539687 -0.052893925 0.32629558
0.057487398 0.062058412 0.15788034
0.056289285 -0.12082001 0.59232527
0.058538053 -0.040526472 0.34406245
0.064464755 -0.1259394 0.58721775
0.061241105 -0.0268209 0.30924493
0.058165066 -0.00064639753 0.2691474
0.068773828 -0.1111813 0.48640078
0.06551259 -0.11989869 0.53876358
0.051832668 -0.080919325 0.45237035
0.01145796 -0.082053915 0.54204899
0.058288787 -0.046901256 0.35794932
0.014194199 -0.094247952 0.64000618
-0.048260774 -0.095577717 0.61978006
0.061017178 -0.12318119 0.59614742
0.02440243 0.0073465086 0.32094803
0.0080197249 -0.092039369 0.64966774
0.0080993446 -0.060710389 0.47256392
0.06151871 -0.12311174 0.59118825
0.0633533 -0.026486428 0.30202645
0.058938023 0.047098897 0.17894794
0.061497848 0.00057732727 0.25542739
0.084693573 -0.15172383 0.61342287
0.014306334 -0.094417363 0.63988942
-0.033282757 -0.013524495 0.76367444
0.059762515 0.020892804 0.20108391
0.018209422 -0.096056022 0.64126533
0.064056724 -0.064189166 0.37757617
0.054080915 -0.081749782 0.44723013
0.0050101476 -0.091444604 0.64703983
0.01805768 -0.092773564 0.5806368
0.062731802 0.042905234 0.16616978
0.023524832 -0.093024671 0.69496262
0.069877617 0.011968878 0.18704289
0.019750085 -0.096666053 0.64851475
0.012229357 -0.091670893 0.66815603
0.060454398 0.050511602 0.1649529
0.010283489 -0.090592012 0.58512902
0.060049769 -0.00017748149 0.2610096
0.024550531 -0.093673937 0.69628012
-0.0044105798 -0.08461643 0.56815565
0.063582793 -0.12340896 0.57023555
0.058974646 0.043314181 0.18617851
0.061404865 -0.030312963 0.31608084
0.058937132 -0.036744803 0.33535483
0.060049992 -0.042720634 0.34507582
0.016798588 0.035474703 0.28275034
0.015418887 -0.092298463 0.67363799
0.062843375 0.014152762 0.22344731
0.02863005 -0.10056142 0.65569282
0.043699503 0.024627507 0.2610603
0.012738066 -0.092039146 0.667539
-0.022353655 -0.014032206 0.79103506
0.017981449 -0.031797472 0.39750788
0.062868498 0.051628094 0.1428763
0.078149967 -0.14389904 0.66118491
0.034112252 -0.10425639 0.62840945
-0.036986165 -0.023242753 0.74871731
0.039215937 -0.10710353 0.61458409
0.061372682 -0.030378444 0.3162286
0.0050321841 -0.07565362 0.52025431
0.014100919 -0.083066687 0.50312829
0.0093317516 -0.089744002 0.67370027
0.010725921 -0.065140411 0.4815639
0.01692841 -0.059915338 0.46030232
0.015793052 -0.094174847 0.65653121
0.048332248 -0.051225115 0.38982862
0.015523944 0.011737313 0.3205812
0.0011618927 -0.079657383 0.7084682
-0.075793333 -0.054251947 0.72632933
-0.0090175206 -0.064513288 0.74037343
0.064206198 -0.099090576 0.46461082
0.077411421 -0.1427848 0.66254765
0.027654622 -0.085772961 0.52514583
0.034732703 -0.094283223 0.54279435
0.025223121 -0.098970972 0.6165899
0.062262941 0.044106584 0.16479906
0.059376549 -0.093717918 0.4650363
-0.028788324 -0.084246442 0.67459655
0.059154253 -0.020763621 0.30424288
0.048777062 0.0092495587 0.27703395
0.060903948 -0.018020734 0.29383525
0.070008218 -0.10208851 0.45268175
0.008655984 -0.080220774 0.71226484
0.065552153 -0.098752119 0.45990816
0.070249215 0.050403282 0.16408743
0.052242674 -0.00097603881 0.2859613
0.034824483 -0.095738143 0.54969233
-0.040491078 -0.033668943 0.75013578
0.035236698 -0.10394993 0.66675663
0.062894464 0.0041001271 0.2432688
0.06040832 0.00068452215 0.25927818
0.007059854 -0.09224645 0.62207878
0.040476892 -0.10744405 0.60727042
0.061099913 -0.076007053 0.4105455
0.020242706 -0.081637174 0.73624158
0.015504528 -0.079843082 0.73146784
0.030971592 -0.10246873 0.63226694
0.06304156 0.0071149874 0.23695439
0.0093150511 -0.089607865 0.67372864
-0.049393456 -0.096145004 0.61607242
0.027766652 -0.089175232 0.53484261
0.073498376 -0.13810784 0.62767518
0.059145063 -0.00045268054 0.2658256
0.011397024 -0.093003809 0.60701841
0.059059881 -0.00065927411 0.26623821
0.042384595 -0.0964351 0.52663779
0.012173297 -0.093458951 0.61218119
0.025421804 -0.098822929 0.60952276
-0.040570095 -0.092398591 0.60729849
0.061201796 -0.0018750285 0.25981203
-0.023136336 -0.069156222 0.5117386
0.069573186 0.054466113 0.16378161
0.059193172 0.039581653 0.19209571
-0.047406636 -0.0095695872 0.77471542
0.059635803 -0.093814753 0.46455497
0.068453468 0.017944051 0.18525478
-0.035849955 -0.086138606 0.67089772
0.015342143 -0.093928285 0.65734911
0.048518896 0.0075181662 0.27977204
0.041219063 -0.10726012 0.59847915
0.0089683691 -0.092048354 0.65188456
0.057528645 -0.040874287 0.34793678
0.064102873 -0.1234144 0.56448281
0.061530363 -0.10010077 0.47736725
0.011892501 -0.09371163 0.61824518
0.0092493556 -0.066022903 0.48616871
-0.034536488 -0.030842548 0.75630015
-0.076299362 -0.079175942 0.70705134
0.018293373 -0.092155911 0.57570696
-0.041865915 -0.091286674 0.64867735
0.058657154 -0.01356988 0.29183519
0.059151165 -0.024515472 0.31113341
0.032596346 -0.10165618 0.59684342
0.072737582 -0.12142549 0.50654775
0.044469487 -0.11120548 0.64488816
0.062998638 0.0099179717 0.23102021
0.0076967785 -0.051639706 0.45088241
0.059682395 -0.011460412 0.28729302
0.0095414398 -0.092982635 0.63706148
-0.01176801 -0.084853336 0.67238635
0.016859049 -0.092070714 0.57930833
0.026892694 -0.10011711 0.62784624
-0.0059639066 -0.059299245 0.75554633
0.010420755 -0.0064718984 0.35906598
-0.039337605 -0.079220317 0.53824437
0.010747008 -0.013674259 0.3713409
0.014824956 -0.090545207 0.68416196
0.01598721 -0.081204258 0.72773081
0.071130499 -0.13389592 0.60660654
0.015346479 -0.093948081 0.65734231
0.059373718 0.040203769 0.19102164
0.013200166 -0.092588663 0.6632117
0.061293133 -0.075788505 0.40973622
0.051908724 -0.11715603 0.62518287
0.034036554 -0.10235537 0.59360617
0.012317839 -0.087605149 0.56161845
0.058317296 -0.013757604 0.27819386
0.0031879861 -0.045769583 0.44185886
0.010413582 -0.092274994 0.6474998
0.070499577 -0.09628547 0.43603456
0.042737592 -0.11314157 0.59901124
0.044262223 -0.11081786 0.64511055
0.061374146 -0.087871812 0.4423458
0.068488866 -0.12925345 0.5822646
0.062777258 0.0065753963 0.23898624
-0.040560443 -0.080563821 0.54175133
0.050461177 -0.072999835 0.43403044
0.0069055688 -0.081538111 0.70999712
0.014386561 -0.092962071 0.66343701
0.042150114 -0.11034241 0.67070234
-0.023878537 -0.086908035 0.58712071
0.033975702 -0.10218383 0.59376991
0.046566114 -0.094958767 0.50034595
0.048446815 -0.11409965 0.64091152
-0.017200116 -0.086205304 0.66099668
0.019193485 0.048530299 0.2594583
0.012027506 -0.06423609 0.47702673
0.055330332 -0.10018595 0.49839544
0.015970854 0.028148774 0.29506609
0.00061698852 -0.10523896 0.55833715
0.058707308 0.0094818324 0.24874851
0.064039715 -0.12341651 0.56668234
0.043755412 -0.11061987 0.64417839
-0.0028614032 -0.057547722 0.76163697
0.057839181 0.068672195 0.14351328
0.034902059 -0.10430271 0.65772432
0.0040183798 -0.063255727 0.75862139
0.017418113 -0.092503339 0.67959213
0.016809853 -0.095508881 0.62270683
0.051797256 -0.056908365 0.39515823
0.024652528 -0.098740675 0.65064096
-0.0070922244 -0.048798889 0.4559682
0.05466491 0.085166104 0.12920269
-0.0093579851 -0.085123748 0.57504052
0.026824668 -0.098146453 0.67340863
0.0665695 -0.031169504 0.31159428
0.017105274 0.0080679972 0.32857358
0.067972332 -0.12337048 0.53981763
0.0073948628 -0.077012435 0.52401936
0.053272776 -0.10126046 0.50900584
0.040523343 -0.10837534 0.597826
0.07095927 -0.11054426 0.47471517
0.0049870671 -0.082912229 0.7025798
-0.091583647 -0.070111252 0.72095561
0.069903933 -0.12334929 0.52990657
0.030146362 -0.098616645 0.68417263
0.048969667 -0.036672205 0.35933796
-0.0036271263 -0.087531 0.66437441
0.071420394 -0.1138691 0.48412699
0.059180241 0.048067171 0.17579338
0.085548192 -0.032236967 0.27156031
-0.023164546 -0.068220966 0.50922382
0.0037132278 -0.090920247 0.64488816
0.010105868 -0.068301916 0.75529587
0.062104575 0.05830143 0.13250646
0.052922189 -0.097503386 0.49700662
0.019920623 -0.067047097 0.76023412
0.026324823 -0.097367808 0.58894616
-0.048141152 -0.09531191 0.60541958
0.017172202 -0.057863992 0.45511639
0.064084008 0.04556964 0.14908743
0.057877928 -0.018658463 0.30387613
0.014719414 0.022538569 0.30556509
0.068404824 -0.03072603 0.31449264
0.032787405 -0.038738981 0.38658938
0.073546782 0.021797657 0.2212531
0.039957978 0.044680435 0.16506797
0.0080739902 -0.080806606 0.71563762
0.031995192 -0.10312648 0.62772781
0.04300626 -0.10933392 0.60872608
0.047999792 0.023417562 0.25366202
0.061552491 0.060530726 0.13208221
0.062794499 -0.087375522 0.43668127
0.063165799 0.049871173 0.13980076
0.030187987 -0.098759934 0.68413413
0.011360249 -0.093143895 0.64917707
0.067428395 -0.12279252 0.54082459
0.0261082 -0.017313024 0.35996121
0.034828056 -0.10407574 0.6572544
-0.031527687 -0.089886621 0.61412466
0.055471491 -0.098510906 0.49234837
0.016168088 -0.07903035 0.51969016
0.019445417 -0.066243708 0.76121312
0.049863108 -0.11431776 0.60679138
0.060996681 -0.031007029 0.31776884
-0.078148812 -0.096425951 0.70770413
0.061619971 -0.087842703 0.4416768
0.0027493755 -0.046725698 0.44420472
0.019552816 -0.067219876 0.48029143
0.039936569 -0.11064395 0.59560138
0.071047127 -0.11057983 0.47450143
0.065433219 0.023802277 0.19354698
0.055442035 -0.098521024 0.49251404
0.062191851 -0.085573085 0.43390238
0.0029419309 -0.052020174 0.45604268
-0.021339806 -0.072901592 0.52274287
0.011683579 -0.049385451 0.44176364
0.026870809 -0.01609399 0.35720402
0.064308532 -0.12562622 0.58323586
0.0032694335 -0.051667526 0.4549365
-0.071748696 -0.064778708 0.7311123
0.02015695 -0.096596606 0.61327821
0.027155077 -0.10016711 0.618496
0.020052494 -0.07123252 0.4874928
0.060594089 -0.021873152 0.30504593
-0.078004971 -0.10589384 0.60649961
0.05147716 0.0032844627 0.28026527
0.0089958943 0.012470667 0.328383
0.069035433 -0.1244598 0.53783
0.037650112 -0.10614566 0.61595243
0.061877728 -0.084561281 0.43242627
0.069657668 0.011756318 0.18939006
