# .PCD v0.7 - Point Cloud Data file format
VERSION 0.7
FIELDS x y z
SIZE 4 4 4
TYPE F F F
COUNT 1 1 1
WIDTH 1341
HEIGHT 1
VIEWPOINT 0 4.13098e-05 4.58e-41 0 0 4.13098e-05 4.58e-41
POINTS 1341
DATA ascii
-0.13141517 -0.057279672 0.52478945
0.082305506 0.11361953 0.64041388
-0.028594231 -0.025508288 0.5446589
0.016922114 -0.036552437 0.56390023
-0.18126144 -0.017511962 0.50079954
-0.16176987 -0.016348599 0.51319754
-0.12439249 -0.023931816 0.52698076
-0.058645591 0.0042364732 0.54010856
-0.084473021 -0.036885235 0.51338953
0.10089234 0.097401194 0.64912623
0.0083007673 -0.028321804 0.56190008
-0.12602222 0.088726468 0.53754026
-0.12093182 0.097076416 0.54257977
-0.11975158 -0.029695099 0.52817255
-0.066436201 0.061630215 0.5572288
-0.070806824 -0.010662614 0.52962685
-0.047971241 0.095012717 0.57523328
-0.18350653 -0.051128775 0.49909922
-0.067267671 -0.0075337463 0.53189164
0.018994978 0.07076674 0.59860319
0.19856635 0.056231309 0.708691
0.036577974 -0.0036800399 0.58358973
-0.044286557 0.06562949 0.56733251
-0.11794383 0.099531457 0.54421693
-0.007324758 0.002174156 0.56344491
-0.12922588 -0.044951111 0.52551359
0.17672592 0.034052715 0.67931485
0.16410691 0.014558888 0.66661292
0.061317652 0.084792629 0.62393427
0.15610512 0.041405581 0.70825273
0.076073289 -0.0035404386 0.60820872
0.10319708 0.014125192 0.65665013
-0.18082233 -0.037440576 0.49995515
-0.066950426 -0.010173776 0.53104401
-0.15857965 -0.11765104 0.55741453
-0.12831895 -0.03119199 0.52497852
-0.052593853 -0.032011107 0.53070277
-0.17223844 0.085270517 0.51838785
-0.051779903 0.020756941 0.54871267
-0.1166569 0.043463327 0.52500945
0.10754684 0.062034395 0.64241385
-0.11619968 0.086686254 0.54062116
-0.076541461 0.0072965301 0.53308475
-0.14455524 -0.10818361 0.55165613
-0.12100765 0.087853961 0.53910053
-0.13182217 0.082229502 0.53228062
0.20379923 0.027706545 0.69255012
0.061646082 0.098899931 0.62644136
0.03328735 0.046436865 0.59710729
-0.0059181065 -0.022324473 0.5564869
0.031864468 -0.02957651 0.57353413
-0.075753324 -0.027017351 0.52153057
0.18224142 -0.02425947 0.67641628
-0.050583746 0.047985688 0.55712765
-0.065344766 0.061831977 0.55643117
-0.13611232 -0.029776903 0.52291363
-0.036067139 -0.024505083 0.5411979
0.036226641 -0.051703289 0.57265902
-0.17790841 -0.047860991 0.50324976
0.019024659 0.074690737 0.59955931
-0.048972368 -0.02755346 0.53394544
-0.12444896 0.049467273 0.52297312
-0.16895801 0.020338437 0.49811184
-0.016386647 0.071336254 0.5822072
0.040340666 -0.034837671 0.57585073
-0.1754639 -0.052022547 0.50603259
-0.17569374 -0.051364765 0.50572908
-0.042492986 0.089780547 0.57633805
-0.010266078 0.070893034 0.58586562
-0.18885745 0.092968322 0.51609892
-0.027070232 0.097896673 0.58588606
-0.1826781 0.089406542 0.51706254
-0.15915984 -0.028677739 0.51485825
0.04525131 0.054623753 0.60403347
0.039819755 0.030095149 0.59396714
-0.071595781 -0.026338832 0.52374202
0.01591515 0.0043877168 0.57558626
0.035178088 0.033694483 0.5713045
-0.12042446 -0.015228577 0.52941597
-0.16658059 0.018887438 0.49863529
-0.07272245 0.039448772 0.54618645
0.00031757588 0.069350868 0.58918542
-0.071978889 0.031027345 0.54334754
-0.17030206 0.0022225506 0.4903591
-0.16425553 0.034989472 0.50419474
-0.0032056523 -0.0092669027 0.56187713
0.034746878 0.051761247 0.59922045
-0.093396045 0.045924414 0.53668261
-0.10309546 0.0771107 0.54441977
-0.06706176 -0.00714863 0.53148341
-0.14280848 -0.025401518 0.5214088
-0.14107838 0.07173194 0.52469695
0.041184448 0.0040359888 0.58749199
-0.072659887 0.0031593482 0.5340082
-0.15253384 -0.11565245 0.55465502
-0.072198309 0.0038100143 0.53371441
0.089644171 0.024029687 0.62065279
0.080028385 -0.018099856 0.60590976
-0.11337134 -0.04083192 0.53017712
-0.128644 -0.046125386 0.52569181
-0.16726758 0.031371225 0.50274467
0.041193224 -0.026125968 0.57890421
0.043908365 0.074379504 0.61200655
-0.17153488 0.0046378635 0.49118891
-0.0054361061 -0.029906154 0.55461103
-0.031957302 0.067744046 0.57411933
-0.17382589 -7.6733522e-05 0.48895547
-0.10872225 0.051232312 0.53225821
-0.060066592 -0.065749139 0.56661373
-0.15654571 0.019906491 0.50225836
0.13799204 0.011332518 0.65085024
-0.16898072 -0.051076811 0.51105273
-0.13214915 -0.023613326 0.52488506
-0.069600306 -0.02645516 0.52444381
0.051341683 0.013421639 0.59582925
-0.056301378 -0.031413071 0.52913529
0.053665068 -0.014313603 0.58844501
-0.086707823 -0.0086799283 0.5229224
-0.18798879 0.050161496 0.5017314
-0.12058286 -0.035069067 0.52770162
-0.06475956 -0.03343131 0.52401394
0.056905251 0.046746511 0.60852271
-0.12522793 -0.023916159 0.52654529
-0.0065020686 0.065475725 0.58449614
-0.084947444 0.044804458 0.54075867
-0.13481161 -0.03557938 0.52280802
-0.063418061 -0.033490226 0.52408999
0.0513651 0.11048712 0.62586313
-0.0069068717 0.0095779737 0.56596678
-0.072409727 -0.036276564 0.51899242
0.1077432 0.0026671283 0.6299085
-0.18618141 0.086494818 0.52573407
-0.06659627 0.050648756 0.5509181
0.13414548 0.010348506 0.6483832
-0.16992149 -0.00038734538 0.49066353
0.03864425 -0.044467896 0.56401604
-0.18102962 -0.025099181 0.50026739
-0.14974362 -0.038653661 0.51943153
0.00068526098 0.068710648 0.58916897
0.016582275 -0.027871031 0.56611681
-0.15376298 0.029070275 0.50676376
0.095738322 0.062215704 0.63525945
0.0067864284 0.11298296 0.60638869
-0.16732579 -0.022737479 0.50986606
-0.13744789 -0.024935093 0.52275127
-0.11167625 -0.0069922134 0.53336471
-0.18125115 0.040535871 0.50023377
-0.1094557 0.047172576 0.53017575
-0.18191387 -0.032206707 0.4991526
-0.077594541 0.059226714 0.5498237
0.019560734 0.080203183 0.60148561
-0.11557541 0.093339138 0.54352039
-0.069852695 -0.026543137 0.52469659
-0.16311757 -0.039974552 0.51296818
0.1604301 -0.01746434 0.66935873
0.043737289 0.067534871 0.60932076
-0.1796167 0.014975291 0.49257407
-0.013680484 0.076842405 0.58527654
0.084541224 0.0083753588 0.61709547
-0.0057038311 -0.02372146 0.55634445
0.10876759 0.062898897 0.64369518
0.051865067 0.11302948 0.62660319
0.05448778 0.010434194 0.59603912
-0.076129183 -0.026343098 0.52157056
-0.12197672 -0.014994013 0.52906191
0.012318308 -0.0056847217 0.57083935
-0.11907491 -0.009578594 0.53098154
-0.12930547 -0.029106697 0.52494133
-0.0031924236 -0.0094519053 0.56194472
-0.010463267 -0.0049134875 0.56001371
-0.050612573 0.0079825697 0.54508746
-0.051754005 0.01007156 0.54459381
-0.12586641 -0.027633704 0.52609241
-0.049396053 -0.020314837 0.53639585
-0.13831688 -0.052329302 0.52281845
0.071061581 0.082121722 0.62966335
-0.055398125 -0.031938367 0.52948201
-0.16738762 0.031089405 0.50314486
-0.11757696 -0.01259018 0.53040022
0.010771993 0.062670618 0.59192115
0.026572756 -0.045600858 0.56463563
0.032508153 -0.051525824 0.56357354
-0.13325065 -0.038289409 0.52312595
-0.17484722 -0.043849338 0.5053277
0.11680917 -0.039167322 0.64386982
-0.081435695 0.10238963 0.56006765
-0.15820673 0.089884773 0.52540052
-0.17678842 -0.050364904 0.50400102
0.10293129 0.090130523 0.64796048
-0.16621308 -0.036522351 0.51123142
0.07167884 -0.010960197 0.60270947
-0.13369702 -0.030861098 0.52363771
-0.082236499 0.078487448 0.55528814
-0.16442734 -0.048115697 0.51266253
-0.16986315 0.011959126 0.49526373
0.032213945 -0.028348031 0.57419622
-0.070361137 -0.043695193 0.52074605
-0.049221553 -0.020236617 0.53622258
-0.13795094 -0.027242534 0.52261561
-0.067430817 0.10230047 0.5659889
0.078042351 -0.013939311 0.60611844
-0.12877402 -0.046793051 0.52587706
-0.17105865 -0.03007438 0.50736153
-0.069482692 0.013128742 0.53770196
-0.17042324 0.0010254305 0.49117127
-0.10642506 0.075937361 0.54288042
-0.1152427 0.092706099 0.54334646
-0.12639862 -0.016330199 0.52693391
-0.0036531719 -0.0043417392 0.56316149
-0.12088795 -0.028844343 0.52846807
-0.18278342 0.088036358 0.5161497
0.11009221 0.075122327 0.64764965
-0.17020914 -0.038694277 0.50880235
0.046756603 0.080854662 0.61554736
0.044082474 0.074499644 0.61189097
0.058163282 -0.012953172 0.59256351
-0.087930009 -0.078969091 0.54553908
0.15738688 0.023746541 0.66495293
-0.17838772 0.019658802 0.49436986
0.17713852 0.0014550108 0.67046225
-0.017415991 0.015818274 0.56236053
0.066198744 0.075769439 0.62457001
-0.11938789 -0.029035853 0.5291236
-0.078703627 -0.073045656 0.56075287
-0.006768574 0.065294445 0.58470303
-0.117575 -0.014997234 0.53064436
-0.0061098002 0.013160661 0.56698722
-0.0050046444 0.066101804 0.58553952
0.048004761 0.08091177 0.6154241
-0.017151967 0.052405927 0.57544571
-0.18879351 0.050494187 0.5018121
-0.13007551 -0.046317361 0.52534819
-0.17397591 -0.0039055957 0.48847046
-0.14753155 -0.079309583 0.52583998
-0.18260954 0.083912961 0.51444757
-0.051427804 0.0026458302 0.54294574
0.1416434 -0.0057038367 0.64813489
-0.092486985 0.092068143 0.55374873
0.029632825 -0.050925039 0.5691427
-0.087738179 -0.067145206 0.54687154
-0.093791962 0.087200291 0.55111504
-0.069762826 -0.041064981 0.51956964
-0.010382981 0.042493075 0.57527804
-0.075930029 0.040700972 0.54532784
0.20477527 0.012126926 0.68882024
0.10193733 0.071137607 0.64125538
0.10223523 0.0030944799 0.62667274
-0.1827842 -0.046949979 0.49932131
0.054134868 -0.039092887 0.58164388
-0.0622654 -0.032880943 0.52571315
-0.14540552 0.021168886 0.5060336
-0.16910489 0.11995315 0.53724492
0.063120477 0.10962819 0.63040805
-0.16566469 0.093495831 0.52386981
0.023617046 0.10594427 0.61160398
-0.14402099 0.08849819 0.52985483
-0.076575778 -0.072851025 0.56113714
-0.17824899 0.088904724 0.51740199
-0.13970177 0.025252648 0.5094645
-0.14050159 -0.089349009 0.52862501
0.17050552 -0.021839401 0.67220479
-0.051039387 -0.027520912 0.53285944
-0.13888787 -0.031209929 0.52185524
-0.0030585609 -0.019378196 0.55882251
-0.0065422561 -0.02544491 0.55526322
-0.07011912 0.033302143 0.54508656
-0.16919371 0.010505589 0.49531305
-0.15183133 -0.099200599 0.53136933
-0.069263659 0.078176342 0.56132334
-0.11964025 -0.011380012 0.53042555
-0.0064447084 -0.022504732 0.55693024
-0.068520449 0.015931305 0.5392372
-0.069829449 -0.0034711109 0.5322274
-0.16448548 0.098598436 0.52511764
-0.14236563 -0.058712788 0.52334362
-0.072665803 0.010222321 0.5355413
0.034067653 0.070261382 0.6055963
0.037666425 0.066739932 0.60528082
-0.16161714 -0.024712555 0.51297736
-0.085102797 -0.0096398452 0.52326655
-0.0686616 0.010097734 0.53715116
0.070695587 -0.012395076 0.60226279
-0.15354793 -0.073509187 0.52459753
-0.07419166 0.039381668 0.54552835
0.11176369 0.0046104374 0.63297147
-0.093306348 -0.077065639 0.54428351
-0.0079148514 0.081655398 0.58957976
-0.14412758 0.044291575 0.5142225
-0.13138969 -0.039398644 0.52378976
-0.041332297 -0.065359265 0.57376146
-0.048040181 0.066399537 0.56637686
0.01602993 -0.033422619 0.5643273
0.14148371 0.030334998 0.67207724
-0.09311454 -0.07703685 0.54408258
-0.15228821 -0.048054576 0.51843554
0.030388322 0.004885688 0.5824604
-0.011021096 0.032185435 0.57181317
0.05116383 -0.047452196 0.57758486
-0.15885814 0.016349131 0.49989063
-0.079161704 0.0070934026 0.53203976
-0.15391304 -0.026091725 0.51738977
-0.11265689 -0.084702827 0.537507
-0.13222748 0.079270124 0.53080505
-0.14407523 -0.027214305 0.52105039
0.063063033 -0.0042133457 0.60879242
0.036922053 0.066458464 0.60570323
-0.0083073424 -0.030109547 0.55313331
0.025626913 -0.037196428 0.56790584
-0.14522582 -0.032844149 0.52077585
0.17118047 -0.023306854 0.67208606
-0.18509039 0.039350614 0.49933174
-0.12292518 0.056454793 0.5265497
-0.13578928 0.034506708 0.51411521
-0.14264196 -0.12469913 0.55391771
-0.034078263 0.074198045 0.57513005
-0.17072298 0.047176562 0.50629205
-0.065463953 0.075389892 0.5618394
0.058248349 0.089221239 0.6234535
0.031383011 0.0038653133 0.58313382
-0.182199 -0.048937909 0.49969068
-0.15978421 -0.017352208 0.51405454
-0.14711954 -0.11615092 0.55370319
-0.12155158 -0.038636934 0.52726835
-0.074451998 -0.0059475903 0.5291214
-0.18318529 -0.019731697 0.49916041
0.073652923 -0.0017476559 0.60632169
0.028262453 0.037002027 0.59192669
-0.16297765 0.041848157 0.5064792
0.096356377 -0.036209725 0.6327911
-0.17085379 0.090349063 0.5210281
-0.098926067 0.079720736 0.54672647
-0.054071527 0.0049504461 0.54258674
-0.18157381 -0.02637887 0.49977958
-0.071161062 0.045638122 0.54887301
-0.14773494 -0.025422243 0.51988137
-0.0070126429 -0.014534382 0.55698109
-0.07498154 -0.018984541 0.52498251
-0.050538808 0.052660014 0.56001955
0.17795375 0.092613026 0.69497824
-0.088309124 0.058728047 0.5445379
-0.15969048 -0.025883524 0.51405811
-0.16988359 -0.00035870718 0.490614
-0.094855972 0.06827873 0.54388648
-0.060826212 0.075202137 0.56383371
0.13559338 0.048767913 0.65593481
-0.15104236 0.12566872 0.53603351
0.20152895 0.016162397 0.68833214
-0.077290379 -0.020315913 0.52313656
-0.058176693 -0.032928411 0.52758205
-0.0064546606 0.078128189 0.58892608
0.041237023 0.0041411649 0.58742958
0.11801303 0.10411101 0.65769368
-0.085960127 -0.0066506481 0.52392024
-0.17575721 -0.058654677 0.50741154
0.13375704 0.002258278 0.64582789
0.063334137 0.059953686 0.61455005
0.041357372 0.0084949071 0.58924234
0.071507961 -0.027996924 0.62437075
-0.069876082 0.011500739 0.5372116
-0.16025452 -0.037448253 0.5144766
0.10892467 0.0062489305 0.63103569
-0.11008557 0.0058325948 0.52267635
0.058279831 -0.016156577 0.59170479
-0.049460731 0.0066476115 0.54473978
-0.027609887 -0.030174393 0.543459
0.034588475 0.11091549 0.61802661
-0.1556465 -0.11683696 0.55602139
-0.076245181 -0.023318361 0.52250028
0.012799529 0.082885355 0.59973222
-0.0072585293 -0.015311921 0.55932552
-0.16526313 0.090084113 0.52287066
-0.14513631 0.020063806 0.505795
0.024315631 0.094065346 0.60858417
0.18064108 0.014824396 0.67608511
0.0077526155 0.0039256178 0.57157117
-0.11765458 0.092730589 0.5422976
-0.12896451 -0.039719794 0.52457613
-0.069087751 -0.00068264839 0.53349167
-0.11922228 -0.025404891 0.52892953
-0.0076380591 0.004980627 0.56436485
0.0073849591 0.069449715 0.59250236
0.052295592 0.010510089 0.59486818
0.020436691 0.092563853 0.60642499
-0.10835124 0.077536672 0.5425604
-0.13923816 0.033697579 0.5124684
-0.13391377 -0.037758317 0.5229513
-0.045870069 0.080845468 0.57236719
-0.12567262 0.046838481 0.52165884
0.029606035 0.0045520761 0.58303016
-0.12235342 0.059681334 0.53012908
0.090212584 0.049512964 0.63686979
0.041053921 0.0052525704 0.58811027
-0.11657493 0.096263207 0.5441733
-0.0013693456 0.083772801 0.5939818
-0.15948257 0.090260535 0.524822
-0.006397103 -0.020833997 0.55696553
0.12084474 0.024768692 0.66175455
0.0044145659 0.038031917 0.58075064
-0.098591074 0.079912998 0.54647648
-0.079851203 0.0054977452 0.53094834
-0.12442908 0.08743149 0.53758401
-0.17530863 -0.036236834 0.50428057
-0.062963046 -0.072569393 0.56470793
-0.068175457 0.047583703 0.55026513
-0.070744947 -0.0019681591 0.53234988
-0.18258253 0.0061504571 0.4891451
-0.051336553 -0.031493705 0.53170574
-0.16629887 0.022596611 0.5000487
-0.12684703 -0.054122522 0.52588385
-0.12342305 -0.050194729 0.52730745
-0.072978251 0.071968302 0.55751538
-0.077335887 -0.020310896 0.52316618
0.011332056 0.020269305 0.57820576
-0.030494649 0.020674495 0.55841315
-0.10739217 -0.084107362 0.53924048
-0.13235053 -0.059339184 0.52482969
-0.10421088 -0.085140452 0.53985965
0.012393601 0.081187204 0.59878814
0.040956996 0.085260257 0.61355096
-0.061567787 -0.064192697 0.56625563
-0.068817891 0.013410234 0.53873837
0.002399314 -0.035502881 0.55687147
-0.15447325 -0.088353261 0.52889472
-0.17127562 -0.039172918 0.50780278
0.04099264 0.084421672 0.61330235
-0.061561577 0.006766974 0.53977191
0.050219614 0.097531557 0.62202239
-0.058573376 0.0076289983 0.54130673
-0.085331663 0.020730527 0.53262466
-0.16590931 -0.048522651 0.51179737
-0.1223447 -0.02175808 0.52798033
-0.15236473 0.02424325 0.50468576
-0.18121845 0.08994405 0.5166896
-0.0084394449 -0.014967149 0.55813795
-0.069215685 0.009810321 0.53685671
-0.13273534 -0.035298143 0.52351433
-0.079455271 0.00023867538 0.52952653
0.1353545 0.0072877938 0.64791828
-0.15842259 0.029528122 0.50419122
0.075166233 0.093514979 0.63279653
-0.10548691 -0.057381559 0.53227043
-0.12111093 -0.010481687 0.53014749
0.16992843 -0.015216327 0.67314583
-0.16530332 -0.04425196 0.51254678
-0.13818139 -0.048871875 0.52266389
-0.0018934027 -0.0080297533 0.56285739
0.05326578 0.028181201 0.60056025
-0.072680667 -0.07540594 0.5614453
0.056739222 -0.018706737 0.59010381
-0.014362144 -0.021783886 0.55296099
-0.18748511 0.030337626 0.49551213
-0.14276901 -0.020217272 0.52100497
0.033660926 0.11111277 0.6182279
0.097717978 0.072625048 0.63939339
-0.049700379 0.0064472863 0.54501384
0.19932821 0.094818674 0.70747435
-0.10551645 -0.087043859 0.53854984
0.13731906 0.051216494 0.66486388
-0.12524326 0.093535207 0.53963739
-0.16878314 -0.043618236 0.51007849
-0.18112208 -0.049102586 0.50057018
-0.032580126 0.020797631 0.55767876
0.021675389 0.079552613 0.60262865
-0.17916009 -0.050247986 0.50236571
-0.17990071 0.010938967 0.491265
-0.079751506 0.053862743 0.5462563
-0.18178067 0.023479762 0.49475446
-0.17002089 0.084249064 0.51866984
0.089575931 0.061959587 0.631504
-0.1344106 0.088086493 0.53344762
0.044518396 0.083851799 0.61474568
-0.071406007 -0.070371859 0.56189287
-0.15461612 -0.13050792 0.5582689
-0.049716905 -0.021090388 0.53573316
-0.033083808 0.078066371 0.57692015
-0.015765198 0.045104776 0.57343072
-0.11770382 0.092660271 0.54237139
-0.1317281 0.091082722 0.53607804
-0.089120492 -0.07808584 0.54539782
-0.17180935 -0.033548087 0.50730461
-0.084950335 0.020719767 0.53243959
-0.14244911 -0.082598858 0.5267756
-0.17213687 0.086283602 0.51881009
-0.096002944 0.058864962 0.54086351
0.04664259 -0.038469341 0.57798785
-0.061457258 -0.069406025 0.56546378
0.053373344 -0.039718375 0.5811156
0.031721976 -0.052638043 0.56985313
-0.11977658 -0.055983275 0.5267933
-0.16988082 0.083102711 0.51800984
-0.14025646 0.091300294 0.53247368
-0.1367846 -0.054566376 0.52336556
-0.091851912 0.071081564 0.54740173
-0.051576372 0.0071493457 0.54420823
-0.1576755 0.0099533144 0.49826559
-0.17691593 0.028101578 0.49737284
-0.13126607 -0.078863457 0.53023005
-0.12470796 0.096051179 0.54115987
-0.13032246 0.097692557 0.53879231
-0.05675596 -0.025488863 0.5313254
0.015629433 0.093587942 0.60445738
-0.17157887 0.022141833 0.49776813
-0.16495551 -0.021896483 0.51122147
-0.0022324894 0.0066479323 0.56738377
0.039828308 0.075927407 0.61005431
0.17302628 0.041709516 0.67699611
0.032897223 -0.052690338 0.56291026
0.043221481 0.079791799 0.61288941
0.18749727 -0.0084756641 0.68243563
-0.013390761 0.02655855 0.56855577
-0.12030693 -0.035083905 0.52753109
0.078625344 -0.0057566222 0.60876781
-0.061737478 0.023869051 0.54335088
-0.012739627 0.0126642 0.5641644
0.032689784 -0.026399782 0.57457453
0.0043743057 0.054493252 0.5861463
-0.12767534 0.0296156 0.51524901
-0.17635912 -0.058014378 0.50806373
-0.048195295 0.086221471 0.57276648
0.064768881 0.091945641 0.62679935
-0.0140174 -0.021026317 0.5527333
-0.14749642 -0.024953907 0.51917309
-0.10343324 -0.05517222 0.5332135
-0.086731024 0.071707964 0.54936874
-0.091122799 -0.069143683 0.54500645
-0.12271369 0.039343826 0.52108288
-0.072022289 -0.070515193 0.56249768
-0.11952004 -0.03527442 0.52774668
-0.028844129 0.0060695326 0.55417627
-0.027926179 -0.022806505 0.54571992
-0.091001116 0.035720304 0.53708756
-0.0024834347 0.0065799854 0.56756538
-0.17640775 -0.040081121 0.5038296
-0.083105363 0.023573013 0.53919494
-0.13046545 -0.018916218 0.52519935
-0.11155235 -0.005055374 0.53378254
-0.05241761 0.051266607 0.55894899
-0.16796969 0.019555544 0.49876973
-0.16458032 -0.044728741 0.51291835
-0.13568796 0.031706732 0.51264971
0.057860021 -0.043052889 0.5822705
-0.13145326 -0.028236154 0.52442986
0.11432315 -0.040858123 0.64268726
-0.056921829 0.0077744783 0.54221797
-0.11948305 -0.04939156 0.52770102
-0.055143561 0.042516422 0.55472153
-0.1040302 -0.084093824 0.53997838
-0.066974357 -0.06939096 0.56359589
-0.072099552 0.0059237233 0.53448129
-0.0030843373 0.0017926114 0.56529975
-0.0031605484 0.0017734997 0.56535542
-0.056315154 0.033465181 0.55111206
-0.067654289 -0.020063043 0.52755564
0.032559667 0.080431677 0.60802543
-0.11677711 -0.085329592 0.53617257
-0.10624968 -0.082332045 0.5398587
0.040997088 0.085248791 0.61354083
-0.12966418 -0.021097582 0.52559346
-0.031440765 -0.033356231 0.54109538
-0.11858123 -0.031214632 0.52835536
0.1453205 -0.0085876398 0.64901066
-0.16175611 0.054041732 0.51245713
-0.16397597 0.0032327846 0.49408165
-0.088695385 -0.082420848 0.54475284
0.044713717 0.081078634 0.61403787
-0.061616886 -0.071032979 0.56547785
-0.073118739 -0.065341741 0.56267089
-0.012714983 0.072595827 0.58433145
-0.02354298 0.0661093 0.57745451
0.17501166 0.021944093 0.67517292
0.0075159511 0.0085562225 0.57258129
0.040589515 -0.030655868 0.57747704
-0.19010477 0.00041249176 0.48473316
-0.070809066 0.066120647 0.55637777
-0.1249584 0.091138981 0.5387674
-0.17072594 -0.037442517 0.50790352
-0.011165517 0.013553952 0.56465209
-0.13912751 -0.052016735 0.52253407
-0.0069293319 -0.013773005 0.55868661
0.091652669 0.0029631141 0.61932158
-0.17068383 -0.037427921 0.50786906
-0.047050033 -0.028840674 0.56276363
-0.16540962 -0.03861976 0.51188111
-0.023706524 0.065732114 0.57774144
-0.16773331 -0.047965795 0.51073074
0.0018626141 0.065742381 0.58803159
-0.15262283 0.0058524488 0.49905336
-0.091372132 0.058031786 0.54247403
-0.075895384 -0.032850847 0.51927406
-0.060600817 0.074327886 0.56352794
-0.068182588 -0.073478036 0.56254864
-0.068629645 -0.0358622 0.52086347
0.15098792 0.05019594 0.6993441
0.037377425 0.03594685 0.5733453
0.049635235 0.10243658 0.62213081
-0.12249545 -0.013147994 0.52867305
-0.070995234 0.0083313463 0.53581125
-0.0061226995 0.00031951215 0.56361002
-0.12636527 0.091067798 0.53827542
-0.075435594 -0.0033665309 0.52984822
-0.10554117 0.067593634 0.54171503
-0.11911362 -0.030062146 0.52876568
-0.007107832 0.010493772 0.56634396
-0.12264837 -0.054279629 0.52715868
0.20648344 0.011762396 0.68949765
0.050755575 -0.011878501 0.5879274
-0.0077406429 0.005033534 0.56440341
-0.13323867 -0.058279209 0.52435029
-0.15240191 -0.12949894 0.55730623
-0.1368822 -0.046071954 0.52302176
0.041027609 -0.027884837 0.57840484
-0.17236954 -0.026392661 0.50646228
-0.14259009 0.092466012 0.531726
-0.013109311 -0.01099247 0.55765843
-0.0022914025 0.0066712918 0.56740904
-0.10106514 0.097326495 0.55192572
0.031807356 -0.030563023 0.5730834
-0.013988662 0.0052864128 0.56110501
0.046077356 -0.03984125 0.57723629
-0.10189413 0.097423352 0.55182815
0.042151265 -0.027095735 0.57863206
-0.11956669 0.091318883 0.54114002
-0.12909921 -0.0517313 0.52536893
-0.15188883 -0.095328145 0.53040892
-0.17661773 -0.047565307 0.50424039
0.050433435 0.01392423 0.59560424
0.19870672 -0.021059413 0.68419856
0.1755124 0.033893779 0.67853397
0.18638864 0.063443959 0.68639553
-0.13457996 0.088808589 0.53387356
-0.144008 -0.11700094 0.55781454
-0.17617892 -0.041627713 0.50420493
-0.0017194578 -0.0087944698 0.56157178
-0.074019723 0.049475938 0.54898512
-0.015585773 0.048464704 0.57494849
-0.0055185957 -0.028605478 0.55503249
-0.065149024 -0.012413608 0.53131652
-0.073014274 0.0024124796 0.53282571
-0.002936454 -0.003198202 0.56374389
0.018000821 0.035003617 0.56345004
0.10352327 -0.024286291 0.62036288
-0.059515331 -0.071414746 0.56572729
-0.055164747 0.023117775 0.54813737
-0.11208677 -0.05735277 0.52910578
0.09817078 0.087125249 0.64439827
-0.052333958 -0.016079986 0.53612429
0.037378568 0.035882287 0.57336873
0.073812887 -0.013454019 0.60340017
0.048768993 0.084755734 0.61702096
-0.10257781 0.04550327 0.53302562
-0.05584316 -0.0038002369 0.53863448
0.034869786 0.013536415 0.58789295
0.035937466 -0.0087189097 0.5820362
0.032316569 0.079730235 0.60763109
-0.070270486 -0.065127738 0.56279397
-0.17323333 -0.038425848 0.50624108
0.13725664 0.018021109 0.65181583
0.03900617 -0.039654281 0.57387376
0.18667835 0.10386354 0.70269704
-0.039194126 0.053521376 0.5656445
-0.083998531 0.064452834 0.54837674
0.025479613 0.082405806 0.60507387
-0.18030922 -0.059720647 0.50398576
0.02276035 0.025664894 0.5837847
-0.15155484 -0.13492918 0.55747002
0.13937646 -0.0055661341 0.64712417
0.051118713 0.071945027 0.61405337
-0.16702358 -0.046263311 0.51256645
0.042359311 0.046181332 0.60107321
0.11809922 -0.037627079 0.64492184
-0.11603824 0.09736944 0.54493511
0.028004168 -0.013585768 0.57618749
0.0005963865 0.079996347 0.593566
0.15379611 0.029019384 0.69084936
0.12158574 0.010807612 0.64103752
-0.098406553 0.085254006 0.54839957
0.064444251 -0.02233294 0.59497029
-0.089043908 0.06998992 0.54854858
-0.091031946 0.056838121 0.54235327
-0.11702562 0.013100793 0.51877761
-0.17818417 -0.060525682 0.5069077
-0.082952812 0.059798323 0.54742092
-0.0018402416 -0.020933161 0.55927956
-0.13416609 -0.029731268 0.52370816
-0.072627179 -0.065728351 0.56208694
0.066917546 -0.009677968 0.60121912
-0.036953278 0.082863264 0.57680261
-0.10580616 0.078766584 0.54386055
0.01414808 0.047996905 0.58878654
-0.13575797 0.007661337 0.50622863
-0.13612205 0.032120269 0.51270461
-0.17033887 0.01783403 0.49655825
-0.070917301 0.0432561 0.54819697
-0.18268329 0.098717682 0.5196026
-0.16416466 0.076334327 0.51535547
-0.019931465 0.077727355 0.58272338
-0.18080011 -0.061549183 0.5051403
-0.057256058 -0.063550614 0.56784546
-0.10454427 -0.07164225 0.54054356
0.040613249 -0.012614681 0.58249122
-0.12187766 0.030741211 0.51950514
0.054008197 0.074574627 0.61613125
-0.16551039 0.022620851 0.49908721
-0.03438193 -0.010277527 0.546399
-0.12747826 -0.056008041 0.52509111
-0.078488506 0.098259725 0.56006438
0.15698873 0.04349396 0.70851105
-0.090924039 0.074921869 0.54875821
-0.019247144 -0.042034317 0.54400355
-0.11528014 0.014997033 0.51984698
0.040854316 0.083284594 0.61268735
0.18266362 -0.012727234 0.67911321
-0.041297998 0.082883842 0.57474303
0.16853182 0.024089437 0.67281246
-0.082198761 0.063885026 0.54906476
0.0031031731 -0.035406385 0.55713952
0.045311373 -0.040083732 0.57685703
-0.17269799 -0.044451822 0.50739348
-0.074792579 -0.0064343973 0.52970749
-0.073364362 -0.073966511 0.56149977
0.060701098 -0.019082794 0.59242165
0.15146843 0.028302507 0.66274917
0.022662785 -0.010469327 0.57414526
-0.11435915 0.048338667 0.52749234
-0.16939375 0.11993141 0.53719205
0.16866165 0.032246701 0.67410976
0.00060907501 0.029554425 0.57539028
0.064216673 0.091690242 0.62708437
-0.078709424 0.056270827 0.54819876
-0.16379209 -0.032567263 0.51242995
-0.075804487 -0.0099977534 0.52731097
-0.0097513059 0.079379536 0.58797395
-0.1344195 -0.048567165 0.52380782
-0.027433647 -0.030000439 0.54324603
0.15332665 0.074324079 0.67974478
-0.18165806 -0.050998364 0.50011575
-0.14104682 -0.026337126 0.52174431
0.030924922 0.096536897 0.61249655
-0.0042405324 -0.0010810304 0.5642584
-0.049084477 -0.021658983 0.53579229
0.014758687 -0.019362917 0.56791228
-0.01291191 0.02025632 0.56683123
-0.17609522 0.076260589 0.5131762
-0.16993193 -0.045469847 0.50957513
-0.073974036 -0.026839139 0.52253073
0.053188805 0.0073961196 0.59463
-0.019895554 -0.029661691 0.54744911
-0.037457611 0.0032296737 0.54980463
-0.041547216 -0.027413972 0.53759956
0.15670601 0.042756673 0.70867246
-0.013353812 -0.006022159 0.55806363
0.051886462 0.088040546 0.61971205
-0.051920068 0.050844204 0.55903584
-0.1722661 -0.043727227 0.50799352
-0.049518004 -0.018695295 0.53670931
0.16066919 0.054010313 0.6958316
0.026788702 -0.049991205 0.56757885
0.10077238 0.0052956315 0.62612188
-0.075054526 -0.0084026717 0.52810681
-0.036874525 -0.03899594 0.53718275
-0.07194075 0.056950156 0.55260885
-0.042497098 -0.031283218 0.53542483
-0.13477531 -0.049447808 0.52387357
-0.079632722 0.0076092817 0.53209406
-0.034392331 -0.01025939 0.54639649
-0.16583985 0.017307684 0.49740157
-0.022806443 0.06798365 0.57761174
-0.0083422922 0.020435276 0.56888336
0.0079475418 -0.012686576 0.56635231
0.014975595 0.081382066 0.60002565
-0.075136669 0.042156771 0.54586643
-0.051713895 -0.032736123 0.53130066
0.044686597 0.097398378 0.61871278
-0.16603746 -0.045886103 0.51227725
0.1736728 -0.014999684 0.67456502
0.17780516 -0.013536489 0.67681313
-0.12288923 0.093660548 0.54042834
0.19371352 -0.0066346861 0.68603468
-0.065584518 -0.065076515 0.56425112
-0.16911739 -0.033274341 0.50924426
-0.13380122 -0.027365105 0.52383989
0.043758579 -0.026883746 0.579772
0.085196957 0.099340796 0.63895756
-0.15556039 0.026778758 0.50461841
-0.1499662 -0.01817763 0.51866394
-0.14560407 0.019981254 0.5056839
-0.066052817 -0.034093756 0.52285898
0.14589849 -0.0031621039 0.65174097
0.017466577 0.0011438079 0.57523161
-0.11790576 -0.051758237 0.52801406
-0.18186355 -0.023963405 0.49982154
0.01653146 -0.013890123 0.57041723
0.075480603 -0.0025441227 0.60733306
-0.16631222 -0.046518281 0.51184821
0.17911325 -0.015241588 0.67699355
-0.070848078 -0.0060447548 0.53095829
0.044107251 0.0050366716 0.58925092
0.051713858 -0.0091016041 0.58890069
-0.16923651 0.00044247555 0.49113446
0.17399289 0.033637125 0.6777246
-0.04300791 -0.03384826 0.53500551
-0.023111653 0.071646854 0.57936645
0.048618868 0.08099027 0.61582732
-0.067302525 -0.068419404 0.56354088
-0.069415227 -0.025052525 0.52527308
-0.060792923 -0.068999685 0.56472772
0.0082734898 0.0067317006 0.57282686
-0.058778435 -0.070168421 0.56651068
-0.0057126838 -0.016733022 0.55842388
-0.0026058585 0.0082196249 0.56730944
-0.032084104 0.051431343 0.56767118
0.077513807 -0.019067667 0.6046747
-0.087811723 0.074733995 0.55052459
-0.06969545 -0.065037943 0.56334287
-0.12099161 0.055139747 0.52679497
-0.14722984 0.091947533 0.52975774
-0.052293915 0.027279586 0.55086124
0.067766428 -0.0092820618 0.59982055
-0.11803688 -0.051874459 0.52804214
-0.12355022 0.037916992 0.5201723
-0.021074904 -0.033004936 0.54576659
-0.073306844 0.0090629989 0.53523093
-0.08997649 -0.069115244 0.54616171
0.17417683 0.08904244 0.69201314
-0.12838836 0.080830917 0.53289783
0.10633186 0.061876867 0.64292049
0.082813092 0.10291602 0.63727283
0.20190373 0.048632201 0.69644964
-0.039802294 0.089060001 0.57779652
0.031167256 0.044138025 0.59579611
-0.065098718 -0.071339063 0.56437045
0.042891879 0.07381741 0.61046219
-0.027709121 0.067283802 0.57577908
0.19854204 0.039900221 0.69295174
-0.15151767 -0.036038104 0.51838171
-0.068352908 -0.012546123 0.52963597
-0.003568786 0.066081636 0.5863623
0.060149774 -0.020838225 0.59155899
-0.15266423 -0.094982058 0.53080797
-0.068689138 -0.0049754428 0.53201258
-0.16170818 0.094897568 0.52593613
-0.17210937 0.012675935 0.49438933
0.051004428 0.08152891 0.6171304
-0.12219892 -0.019195551 0.52822435
0.041341741 -0.021144919 0.58035928
0.14341868 -0.0055182264 0.64866352
-0.10759857 -0.081825353 0.538975
0.11168715 -0.0037793375 0.63042796
-0.14376843 0.091479786 0.53215671
-0.049013581 -0.017302927 0.53704
0.048571937 0.080751657 0.61593705
-0.077675074 -0.0081387274 0.52715641
-0.0018309461 -0.0030098599 0.5646351
-0.18528885 0.038010672 0.49852774
-0.1198571 0.038328607 0.5221073
-0.13645707 0.10719619 0.53868002
-0.12664823 -0.034849502 0.52526373
0.13530359 -0.024564831 0.65538758
0.028000915 0.052913871 0.59648138
0.20310391 0.010716917 0.68759245
-0.17278747 -0.029832605 0.50616252
-0.17905743 -0.015396293 0.5020988
0.052846767 0.081448458 0.61821055
0.020475619 -0.038775988 0.56447506
-0.12110024 -0.033676386 0.52738374
-0.067693666 0.0041176626 0.53391415
-0.032167736 0.051023766 0.56703234
-0.068472922 0.075151883 0.5604381
-0.16865639 0.01326905 0.49575609
-0.066289619 -0.035940625 0.52188528
0.04002681 -0.014419572 0.58168799
-0.12155971 -0.0088621164 0.52991891
-0.13525465 0.039200757 0.51519877
-0.056591719 0.064909361 0.5619716
0.055336226 -0.050723657 0.57848608
-0.065229848 -0.0047541494 0.53336436
-0.0019070026 -0.029538067 0.55630851
0.15166074 0.032258544 0.69572949
0.015821379 0.084987342 0.60169506
-0.13952984 -0.052535512 0.52240247
-0.17961761 -0.04024078 0.50123626
0.068045296 0.11035237 0.63289547
0.0082432935 0.020450138 0.57668203
-0.12278286 -0.086236469 0.53416932
-0.02767263 -0.022748202 0.54550654
-0.11365166 -0.0448808 0.52990544
-0.15245545 -0.039555136 0.51818299
-0.17511021 -0.030687029 0.50492698
-0.0031383478 -0.0059316414 0.56286436
-0.15835752 0.0077826804 0.49722591
-0.112621 0.086706415 0.54195112
-0.17868295 0.028955914 0.49773178
-0.12939896 -0.055522095 0.5251593
-0.1487814 -0.066720277 0.51440752
0.034430806 -0.03989416 0.57178748
-0.072671041 -0.0092621353 0.52920479
0.17270117 0.0019178303 0.6684218
-0.016807893 0.0073705399 0.56046623
-0.059675433 -0.068452515 0.56625092
0.017093899 0.001120274 0.57546645
0.1686756 -0.025721222 0.67056763
-0.10200154 -0.082863964 0.54039788
-0.068269461 0.0045578252 0.53569692
-0.014485857 0.082676165 0.58682436
-0.15129039 -0.11440229 0.55399281
-0.18076372 -0.051764045 0.50103754
-0.046316352 -0.010755574 0.54064655
-0.0012320619 -0.023914902 0.55828345
0.13967364 0.072060645 0.6715883
-0.12841611 -0.057882883 0.52483183
-0.010097711 -0.016956097 0.55626416
0.10816006 0.027563468 0.62606603
-0.0060277884 -0.028621873 0.55462635
-0.051099516 0.005669992 0.54434401
-0.17411505 -0.048593063 0.50633889
-0.039736871 0.088440701 0.57757896
0.045345467 0.006875773 0.59001237
-0.012756896 -0.035746984 0.54918772
-0.1481757 -0.13575967 0.55624485
-0.10906974 -0.01204641 0.53369212
-0.016409444 0.079349287 0.58486098
0.097568564 0.010273748 0.62579185
-0.032205824 0.025843821 0.55945903
0.054885276 0.022756986 0.60064417
-0.18554093 -0.015960891 0.49808997
-0.0077502215 -0.029942892 0.55265856
-0.0020149383 0.0021731628 0.56446862
0.0094387904 0.033936054 0.58210927
-0.1278228 0.012263151 0.51114613
-0.037479769 -0.0037905504 0.54714257
-0.10653978 0.069639489 0.53823721
-0.01142773 0.041176125 0.57422149
0.18670678 0.052995045 0.70338607
0.074099846 0.090382323 0.6316545
0.10367814 0.10445766 0.64948255
0.017150322 0.10464317 0.60890985
-0.1025222 -0.070435181 0.54097605
-0.018761223 -0.011576615 0.55366373
0.097979896 0.085934795 0.64399165
-0.062804714 -0.037550066 0.5239715
-0.16360217 -0.02760716 0.51188093
-0.029337544 0.00029224972 0.55230814
-0.11941638 -0.030341174 0.52821231
-0.035717297 0.088960275 0.57960707
0.044191513 -0.026702689 0.57944661
-0.17934595 -0.048971578 0.50201392
-0.069462709 0.041624837 0.54824132
-0.11902222 -0.021050025 0.5286544
-0.11578985 -0.084622793 0.53623009
-0.010135601 0.026328729 0.56994432
-0.14385901 0.020449057 0.50720304
0.17562543 -0.016187765 0.67497069
-0.10124744 -0.082679145 0.54047233
0.068874784 0.078432493 0.62651396
-0.13968448 0.10886039 0.53794068
-0.029997392 0.077453554 0.57839996
0.050124537 0.081224844 0.61647302
-0.028593207 0.0075889057 0.55504578
0.12949851 0.045838557 0.6706019
-0.15170842 -0.029095955 0.51829487
0.17364089 0.025860315 0.67568058
-0.078989722 0.0023420586 0.53044349
-0.042431872 0.067253947 0.56923956
-0.063628927 0.080410957 0.56446147
-0.028421676 -0.0025185084 0.55180967
-0.077597469 -0.018234834 0.52364147
0.17094898 0.0035557256 0.66784799
0.00054923329 0.066344135 0.58821332
-0.1509918 -0.09564805 0.52898973
-0.069028445 0.0050280606 0.53501225
0.1981288 0.021070868 0.68794006
0.074524924 -0.0053995023 0.60653806
-0.13638492 -0.050136097 0.5233649
0.032550037 0.066549011 0.60323358
0.12850915 0.0050451183 0.64347231
-0.062493213 -0.074973218 0.56358278
-0.041543812 -0.0086805895 0.54361469
0.012511089 0.096405499 0.60385627
-0.032241635 0.057223756 0.57027543
0.008737701 -0.037866808 0.55934942
-0.0042794305 -0.050035883 0.56576294
-0.15749262 -0.02438017 0.51533204
-0.165813 0.053786986 0.51027805
-0.040433384 -0.031929191 0.53664893
0.14615318 -0.0014971332 0.63680446
0.0067841448 -0.0034456535 0.56875426
0.038656574 0.11005808 0.62108916
-0.0034316299 -0.040434357 0.55239242
0.19059056 0.021271279 0.68450731
-0.030009 0.0020066032 0.55285466
-0.13087913 0.095498346 0.53794676
0.050474979 0.080568716 0.61645359
0.0048702606 -0.015364643 0.564197
-0.11005922 -0.014054161 0.53304106
0.011810227 -0.0073343301 0.56990021
0.052312184 0.031958636 0.60205388
0.011012167 -0.014811241 0.56710082
-0.065036021 -0.0037702837 0.53478575
-0.0009710259 -0.025477167 0.55769438
-0.17748182 0.029040217 0.49794382
-0.041511163 -0.0080799097 0.54382354
-0.065825254 -0.064513043 0.56449097
-0.17326611 -0.02286021 0.50614303
-0.090701863 0.092697054 0.55417728
0.061503213 0.1048923 0.62815863
-0.069533601 -0.066281207 0.56313461
0.016616371 0.0062176674 0.57639313
0.06035389 0.10167345 0.62663847
-0.15948604 -0.12559648 0.55950862
0.0067655668 0.029699489 0.57937658
0.019295527 0.0087587079 0.57839859
0.050346598 0.08165662 0.61705631
-0.080083333 0.052795649 0.5457924
-0.050210152 -0.059529889 0.55762804
-0.070779823 0.0064294483 0.53569692
-0.068407282 -0.066756696 0.5633617
0.008382746 -0.010380986 0.56713909
-0.15730903 0.019745896 0.50201893
0.053016275 0.08081241 0.6178875
0.15310535 0.028022526 0.66411489
0.094243668 -0.011835128 0.61727583
-0.076309003 0.10037746 0.56130534
-0.12798123 -0.041741841 0.52556157
-0.10920928 -0.041636292 0.53248435
-0.0017196621 -0.0029884747 0.56455523
-0.1743308 0.0080122249 0.49164358
-0.15197276 -0.039428413 0.51848119
-0.080059968 -0.029604048 0.5186345
-0.049927626 0.05319782 0.55979007
0.0069031003 -0.003442009 0.56867778
0.1175769 0.0041974448 0.64385581
-0.062191255 -0.0027358816 0.53599507
-0.11280281 -0.082617268 0.53745639
-0.14402421 0.089137465 0.53016531
-0.069220439 0.041683033 0.54808933
-0.0032226702 -0.041882776 0.55196929
-0.061052054 -0.010941512 0.53381616
0.089824043 0.06727998 0.63334149
-0.1467735 -0.10854068 0.55197614
-0.015989635 0.0054275431 0.56045097
-0.085329615 -0.074167296 0.54707032
-0.15424734 -0.032579601 0.51732945
-0.1178864 0.082799204 0.53809804
-0.053674292 -0.013928906 0.53609461
-0.17691991 -0.051847391 0.50455105
-0.11551248 -0.045873854 0.52920979
-0.099414743 -0.079604112 0.54100835
0.11439147 0.0025559354 0.63370717
0.059138801 0.0022887241 0.59753972
-0.0075487173 0.0075357715 0.56514955
-0.13400464 -0.053188629 0.52392054
-0.16334726 -0.022536298 0.51208514
0.030383546 0.09339866 0.61139482
0.116981 0.013094387 0.63863117
-0.0060787965 -0.029957768 0.5540393
0.060755864 0.11280882 0.6268658
-0.15409207 -0.032527808 0.51719207
0.11563843 0.013734394 0.63837802
-0.096394137 0.097245164 0.55290133
0.021268575 -0.038925767 0.5650484
-0.036155548 -0.019979561 0.54286009
-0.12896979 -0.086016104 0.53208321
-0.062505655 0.07826142 0.5638988
-0.072359666 -0.032928854 0.52102834
0.19227049 0.0055460427 0.68048453
-0.022247761 0.079124913 0.58213705
-0.064350985 -0.029599061 0.52599752
-0.1276156 -0.087865017 0.53254408
-0.16217418 -0.023555407 0.51289976
-0.1233153 -0.086775623 0.53400832
-0.058881782 -0.014659901 0.53336775
-0.1661506 -0.049873754 0.51164186
0.056104273 0.00090542698 0.59485269
-0.1260713 0.059967577 0.52624589
0.16135043 0.036065821 0.69933307
0.0018863778 -0.013556234 0.56289011
-0.084912568 0.018011738 0.53043705
-0.11727763 -0.047275078 0.52886319
-0.081939623 0.065344416 0.54978693
-0.058392119 -0.066072397 0.56689513
-0.016873069 -0.0027442398 0.55770695
-0.035621025 0.086258806 0.57882702
0.19758303 -0.023554867 0.68287694
-0.13443221 0.039418861 0.51598942
-0.15415129 -0.09085419 0.52930808
-0.12379061 -0.04006296 0.52708447
0.002054929 -0.013457219 0.56216335
0.030017251 -0.024873471 0.57441479
-0.11072141 -0.085130841 0.53799301
-0.070031293 0.0021622067 0.53415018
-0.14093073 -0.080656357 0.52679795
0.0075668404 -0.026215596 0.56250972
-0.08685793 0.025684886 0.53516567
0.16784579 0.020952741 0.6705898
-0.091889508 0.044736207 0.53685367
0.046231281 0.11600216 0.62585407
-0.0021939902 0.060521424 0.58344638
0.0074068387 -0.019808576 0.56439281
-0.012739143 0.080752604 0.58700919
-0.038549885 -0.028724764 0.53865451
0.060897149 0.11305344 0.62672693
0.011291333 -0.037913576 0.56055206
-0.18205038 -0.043458518 0.49942288
-0.053745102 -0.014031749 0.5362078
-0.12882623 -0.042151567 0.5253185
-0.16794175 -0.033893317 0.50995559
0.050113954 0.054364562 0.60741007
0.016232446 0.0055702007 0.57598698
0.14323393 -0.0043656128 0.6497407
0.10847071 -0.0054767258 0.65389669
-0.027820051 -0.012378195 0.54895473
-0.053017534 0.065487474 0.56389201
-0.039615087 -0.011018459 0.54384816
0.056287307 -0.041365013 0.58198863
0.04229534 0.092599362 0.6167469
-0.077934489 -0.021595165 0.52223074
0.11893681 0.0064840498 0.6380794
-0.005924915 0.06808769 0.58590782
-0.0099555487 0.064255647 0.58279425
-0.070712738 0.0067850524 0.53539318
-0.17140198 -0.021330543 0.50680685
-0.10104067 0.044555925 0.53348196
-0.035058562 0.091987535 0.58064902
-0.021085778 -0.038063433 0.54414254
-0.069357693 -0.065767661 0.563079
-0.1550259 0.091917075 0.52735597
-0.016708592 0.0077691292 0.56020749
0.059926759 -0.0063529024 0.59549069
0.18075068 -0.018748809 0.67708498
0.051138729 0.02312658 0.5983901
-0.15251547 0.11919624 0.53867555
0.18483031 0.0098589417 0.67703104
0.17321309 0.01269639 0.69225049
0.041455179 -0.032645859 0.57694334
-0.032706045 0.063753113 0.57219601
-0.16694707 0.088688806 0.52191478
-0.16769734 -0.043987151 0.51091248
0.044049516 -0.011675788 0.58444178
-0.15354013 0.057902288 0.5154829
0.051234346 -0.024349231 0.58573902
0.070167005 0.099480271 0.63159853
-0.078438334 -0.017320471 0.52380502
0.20578812 0.016192576 0.69032484
-0.061054409 -0.068221889 0.56557524
-0.17550559 -0.02054628 0.50398386
-0.002962291 -0.0035213588 0.5633775
-0.14793232 0.058574878 0.51766223
0.0061988533 -0.0048856437 0.56789577
0.051581059 -0.024208099 0.58548832
0.062606514 0.058315251 0.61385506
-0.10507165 0.069997393 0.53960246
0.0159567 0.0067515695 0.5761677
-0.063962884 -0.064705864 0.56509906
0.1752186 0.084069729 0.69092888
-0.17566529 0.018848689 0.49524388
-0.18633798 -0.01962645 0.49625003
-0.040532935 -0.025542837 0.53863984
0.16288282 0.054026775 0.69571239
0.027648706 -0.00067781156 0.57956749
-0.12081396 0.089126408 0.54007798
-0.013971644 0.087662846 0.58894688
0.036837734 0.10720503 0.62090504
-0.13803823 0.067860097 0.52390558
0.15719244 0.034558404 0.69363093
-0.12131596 -0.04375384 0.52762097
-0.10161653 -0.075186074 0.54094243
-0.083151236 -0.026862158 0.51805741
0.04941282 0.046610158 0.60531199
0.053132903 0.061788552 0.61188126
0.038649634 0.082173705 0.61155856
-0.094032742 0.068205975 0.54621559
-0.0019465592 -0.03753911 0.55380636
-0.02292789 0.075436756 0.58064425
-0.12007587 -0.0093511268 0.53022689
-0.15776564 -0.12888819 0.55575699
-0.095731989 0.064121015 0.54309583
-0.050678428 0.10374825 0.57338488
-0.037974894 0.0069502853 0.55071992
0.1724907 0.023516154 0.67501396
-0.10142884 0.062294964 0.53902352
-0.055215228 0.045077998 0.55571073
-0.13883303 0.073660336 0.5260852
-0.060470354 -0.070830576 0.56556249
-0.0050914977 0.01070158 0.56687415
0.12280033 0.0029833491 0.63943994
-0.1669784 0.10440124 0.52656621
0.19809096 0.09423463 0.70657063
0.07348904 0.060446959 0.62089336
-0.13298643 -0.048429023 0.52410215
-0.16215637 -0.023116704 0.51297444
-0.034529943 0.066112109 0.57210165
0.18574773 0.10249545 0.70223415
0.18761462 0.08582402 0.69876343
-0.059216756 -0.0046346588 0.53705561
0.079180054 -0.018465919 0.60573721
-0.029695766 0.0068157744 0.55439496
-0.078126207 -0.021647032 0.52241015
0.0072762687 -0.013672331 0.56572521
-0.097169138 0.064727813 0.54282129
-0.017580675 0.046668138 0.5733459
-0.019209644 -0.017716348 0.55151516
0.18905468 0.090119146 0.70048344
-0.14640138 -0.113687 0.55298525
0.0096523948 -0.038883477 0.55969256
-0.17726703 -0.060908996 0.50725991
0.11995068 -0.041577574 0.64444131
-0.15160438 -0.037212092 0.51841831
0.031985555 0.068980329 0.60391855
0.054206934 0.075906277 0.61695772
0.047418159 -0.020808954 0.58341873
0.06003366 0.0048717009 0.59922606
0.10879247 0.0038854543 0.63043678
0.030668452 0.047927417 0.59655333
-0.017480798 -0.016302433 0.5528729
-0.0670266 -0.0016821653 0.53421891
-0.13060254 -0.017342791 0.5251087
-0.058864996 -0.066307992 0.56738895
-0.091648743 -0.08258222 0.54362929
-0.079739653 0.059886016 0.54880631
0.1200344 -0.00046426777 0.63692838
-0.016097864 0.0047127078 0.56014103
-0.17021434 -0.018221213 0.50756252
-0.01051478 0.0037183478 0.56267059
0.008964696 0.00012361859 0.57092738
-0.054160547 -0.0071917088 0.53819692
0.12108685 -0.00084572908 0.63754165
-0.15620954 0.042683236 0.50875354
-0.15695654 0.041733138 0.51004601
-0.082618386 -0.007266555 0.52518052
-0.096117109 0.062825546 0.54204118
0.044548657 -0.029668042 0.5792731
-0.0095587512 0.018224178 0.56551123
-0.15378277 0.047760591 0.51293296
0.081108943 0.060836166 0.62674314
-0.14213477 0.033429891 0.51103479
-0.013585814 -0.0096772835 0.55673748
-0.13088004 -0.086821474 0.53130597
-0.020263972 0.0053361105 0.55824232
-0.043871246 0.055576276 0.56244957
-0.046763889 -0.0079948809 0.54164308
0.0062949695 -0.0048849569 0.56783432
0.048322454 0.070417501 0.61234397
0.017849054 0.082954973 0.60204357
0.026142173 0.097072423 0.6105876
-0.16931318 -0.047571823 0.51020628
-0.010048158 0.064611636 0.58264083
0.034108169 -0.017328406 0.57788444
0.054710649 -0.028181508 0.58688533
-0.053576909 -0.01238028 0.53654581
-0.081563063 -0.0075330767 0.52558994
-0.18486986 0.018212467 0.49192435
-0.10994087 0.051731706 0.53186727
-0.054313958 -0.015350743 0.53550816
-0.034453314 0.066219598 0.57200396
-0.16698869 0.09801989 0.52432549
-0.025119906 -0.0030542014 0.55323482
-0.14127097 0.054178655 0.51875037
0.16570455 0.059074908 0.69861197
0.19756967 0.01496368 0.68632603
0.013337481 -0.017039668 0.56767434
-0.093868606 0.061251882 0.54256934
-0.035618976 -0.0057703191 0.54790264
-0.073483355 -0.012484418 0.52752107
0.0072697927 -0.0068538198 0.56725061
-0.089686215 -0.021413291 0.52689761
-0.18525591 -0.044149697 0.49663854
-0.13855094 0.045800544 0.51673585
-0.056686103 -0.0076132435 0.53685004
-0.11138691 -0.059972908 0.52915436
-0.088661656 0.067249134 0.54767042
-0.1424668 0.048049815 0.51600534
-0.092520401 0.059328754 0.54132569
-0.015337555 0.068588778 0.58152848
0.095606409 0.003661348 0.62207645
-0.14559121 -0.089533597 0.52805197
0.096064672 0.077827886 0.64027119
0.14394227 -0.017570525 0.66550094
0.11698586 -0.045138068 0.64225441
-0.067986399 0.021253636 0.51895088
-0.0026543399 0.0026245669 0.56547296
0.16131015 0.027400242 0.66378492
-0.17567988 -0.05534596 0.5063889
-0.055430904 0.015329512 0.54515809
-0.058642305 0.07054539 0.56299013
-0.15206616 0.0035895593 0.49796718
-0.04725156 -0.016686914 0.53848523
-0.026798489 0.091108993 0.58478516
-0.10749185 -0.036126457 0.53396142
0.091674775 0.0078924922 0.59571415
-0.055107586 -0.067289539 0.56808454
-0.12683088 -0.024565494 0.52613127
0.13059872 -0.0097073764 0.64068145
-9.8699602e-05 -0.0055635571 0.56407946
-0.15615132 0.11107153 0.53263307
-0.015928425 -0.012596203 0.55480468
-0.025112597 -0.018631017 0.54855627
-0.10279469 -0.077075168 0.54068857
0.18254083 0.063092127 0.6878143
0.11108223 -0.0075034173 0.62944907
-0.0099179633 0.013319115 0.56559056
-0.12849505 -0.044140894 0.52524716
0.1857118 0.006708235 0.67716843
-0.0085118385 0.0065599484 0.56433165
-0.14088368 -0.081851423 0.52685964
-0.056354847 -0.058772381 0.55455327
-0.11256444 -0.081753604 0.53743893
-0.059346233 -0.067737401 0.56576633
0.036704622 0.062154226 0.60316819
0.11444035 -0.045996804 0.64113826
0.11448243 0.0024652213 0.63431567
-0.092667334 0.069185302 0.54496419
-0.03847253 -0.028763821 0.53866649
0.098185219 0.094789721 0.64642006
-0.17943312 0.07801611 0.51086515
-0.064520791 -0.063937426 0.56559354
-0.16396558 -0.019327303 0.51109719
-0.18321173 0.09356185 0.51865667
0.042958193 -0.038688496 0.57615507
0.0076186941 -0.0086266277 0.56727904
-0.11540287 0.041363433 0.52475965
-0.063697733 -0.0061414465 0.5339936
-0.079869799 0.053139824 0.54542959
-0.066732362 0.0069191605 0.53679311
-0.11741689 -0.082036346 0.53561056
-0.15566212 0.091302864 0.52725881
0.015518279 0.092101261 0.6040135
-0.16821115 0.050843492 0.50894207
-0.053641737 -0.012450547 0.5366345
0.028077733 0.069709055 0.60248601
-0.11597174 0.012598003 0.51893771
-0.11828765 -0.02592057 0.52896547
-0.12009579 -0.033918243 0.52749819
0.18658587 -0.022995621 0.67823064
-0.038541451 -0.030104537 0.53826159
-0.14145328 -0.081016921 0.52764171
-0.052693956 -0.007724924 0.53853774
-0.069633171 -0.019286441 0.52664769
0.024530474 0.089645877 0.60726804
0.016878845 -0.038514398 0.56326145
0.11204313 -0.016685644 0.62738669
-0.0062972461 -0.038976446 0.55136257
