# .PCD v0.7 - Point Cloud Data file format
VERSION 0.7
FIELDS x y z
SIZE 4 4 4
TYPE F F F
COUNT 1 1 1
WIDTH 1334
HEIGHT 1
VIEWPOINT 0 4.10146e+07 4.57636e-41 0 0 4.10146e+07 4.57636e-41
POINTS 1334
DATA ascii
-0.047321752 0.075323895 0.55149376
0.11216299 0.039964117 0.59361273
-0.051835217 0.05021235 0.54044002
-0.062795751 0.043513682 0.53220719
-0.052662399 0.040639099 0.53514874
-0.090150245 0.050266754 0.52074462
-0.033196133 0.072294198 0.55591238
0.017171048 0.018495414 0.55817771
0.11599081 0.048324998 0.59743327
-0.077702582 -0.0059459833 0.50027561
-0.052247062 0.074278884 0.54899848
0.00042502157 0.031257179 0.5559051
0.030703936 0.069549218 0.57701182
0.14407068 -0.0355049 0.5755952
-0.063725851 0.074722193 0.54385543
-0.085353151 0.034992665 0.51587617
-0.032840472 0.072243124 0.55578852
-0.10170937 0.046009615 0.51374292
0.07890068 0.037178833 0.581227
-0.057200309 0.027871996 0.52938795
0.030366732 0.069190137 0.5774073
-0.085639365 0.034505598 0.51661414
-0.055913396 0.074872367 0.54697281
-0.098987147 0.032184221 0.50870132
-0.10754944 -0.022881361 0.46567658
0.093836039 0.033409644 0.58676064
-0.10338423 0.0011232038 0.48857769
-0.09543404 0.04368785 0.5155496
-0.059122361 0.026828453 0.52752954
-0.02882834 0.037849754 0.54576093
-0.10336762 0.030719904 0.50582945
-0.044687022 0.043417908 0.54181862
-0.022214608 0.033492234 0.547405
-0.047609545 0.050380275 0.5426842
-0.1141718 0.08201693 0.53057396
0.15963456 0.039800949 0.59583521
-0.052557141 0.074029326 0.54936767
-0.10775988 -0.022861322 0.46582663
-0.077444896 -0.070184283 0.47425342
-0.049265448 0.021384222 0.53225821
0.045197677 0.0023376034 0.5635168
0.16057174 -0.053876244 0.57942349
-0.083976708 0.037962172 0.51722378
-0.15979899 0.082304515 0.51610124
-0.045515284 0.011804778 0.53073645
-0.029050652 0.037799031 0.54594451
0.077253811 0.036809068 0.58243114
-0.035886023 -0.04358175 0.52324086
-0.12587757 0.081689373 0.526595
-0.053451069 0.051132046 0.54019725
-0.047177948 0.076257877 0.55179793
-0.0403939 0.04120937 0.54307908
-0.10841665 -0.022849591 0.46621674
-0.041801132 0.074793316 0.55307525
0.070119753 0.0172108 0.57517946
0.035269383 0.015716169 0.56917244
0.083408408 0.031030251 0.58308738
0.0098942267 0.075684056 0.57365203
-0.047550231 0.05063178 0.54241717
-0.10651103 -0.025095774 0.46491536
0.1626599 -0.053337306 0.57788026
0.15888868 -0.038305569 0.5806002
-0.13927138 0.0047318283 0.47980058
-0.07727313 0.074044034 0.53639495
-0.045603644 0.052562702 0.54463643
0.085256375 0.048722662 0.5886668
0.15926778 -0.037402127 0.58084977
-0.079368912 0.061198767 0.52962393
-0.094582878 0.079653218 0.53621954
-0.096280806 0.031343341 0.50914502
0.1611235 -0.053753886 0.57901502
0.045330271 0.0030114239 0.5635649
-0.058803957 0.07447435 0.54564184
-0.048486169 0.02273431 0.53280711
-0.08453536 0.036015589 0.51421237
-0.10476869 0.00033731165 0.48812887
0.084293403 0.037926361 0.5851416
-0.073522039 0.046517193 0.52762985
0.045483533 -0.00091500086 0.56295609
-0.052172482 0.032131139 0.53256387
0.051172245 0.061172578 0.58066845
-0.093494222 0.052177433 0.52123004
-0.038489092 0.02624948 0.538782
-0.14068201 -0.0067537124 0.47385797
-0.076684356 0.071939766 0.53557765
-0.089320041 0.070074953 0.5292933
-0.040263336 -0.010033972 0.52652377
0.033608343 -0.018000193 0.55489761
-0.06638772 0.031660393 0.52654356
0.078360476 0.074493706 0.59292638
-0.06645117 0.03192918 0.52629918
-0.13867858 0.080579802 0.52132523
-0.073858775 0.073221631 0.53798205
0.057476569 -0.011381676 0.56459165
-0.14688399 0.059146546 0.50806159
-0.086904384 0.0010354366 0.49827552
-0.095256679 0.043737054 0.51541102
0.049496006 0.069342226 0.58225977
-0.058645349 0.027147586 0.52689821
-0.071334563 0.071746983 0.53838545
-0.048079744 0.056523621 0.54462451
0.046342157 0.034599911 0.57192826
0.067057617 0.062114004 0.58701789
0.032334525 -0.014613444 0.55511856
0.047161501 0.034040194 0.57214266
-0.0247053 0.022272838 0.54310036
-0.063384332 0.041371442 0.53177869
-0.07172472 0.072047099 0.53821665
-0.069631405 0.070397407 0.5383656
-0.13794699 -0.01592797 0.46759453
-0.11299099 0.058338046 0.51454902
-0.038559534 0.025489267 0.53824234
0.049074963 0.069544695 0.58210182
-0.099735834 -0.0091217514 0.48390174
-0.108388 0.031005301 0.50391734
-0.13889828 -0.0084087793 0.47243747
-0.039499056 0.030866921 0.5396058
-0.099928826 0.039657567 0.51160103
-0.06920138 0.040081751 0.52691561
-0.060673419 0.026275791 0.52654701
0.04909778 0.031752236 0.57216418
-0.095741339 0.043983776 0.51530331
-0.03972197 0.030821349 0.53979266
-0.028737092 0.032970417 0.5444119
-0.018555166 0.021851238 0.54595143
-0.044352014 -0.018680517 0.52123111
-0.086616218 0.0010192613 0.49807769
0.054646153 0.029446485 0.57264155
-0.09773802 0.055465057 0.52087545
-0.084424123 -0.01419606 0.49110651
-0.012462963 0.022692449 0.5482021
0.049587157 0.069691442 0.58202648
-0.097327493 -0.0077567482 0.48488191
-0.059686087 0.033282366 0.53025311
-0.088447332 0.037476119 0.5159055
-0.033449568 0.037793882 0.54423714
-0.10038269 -0.0050420659 0.48519248
-0.077282764 0.066274174 0.53402066
-0.097907618 0.043685626 0.51450843
0.11254889 0.037807357 0.59345978
-0.069671117 0.07413134 0.53980017
0.039952911 -0.019737303 0.57141107
-0.10920656 0.019304499 0.49324441
-0.042199768 -0.0062085059 0.52598256
0.088637173 0.075856045 0.59692794
0.0007185071 0.027446866 0.55435044
-0.030738046 -0.043368269 0.52545726
-0.088612407 0.037465956 0.51599985
-0.032495193 -0.042676531 0.52476293
-0.086707816 0.032121107 0.51427972
-0.04722815 -0.016732717 0.52055985
-0.13815193 -0.012949919 0.46932614
-0.038899299 -0.043805435 0.52132773
0.10376626 0.060168106 0.60069597
-0.041454542 -0.049658157 0.51795846
-0.091134936 -0.0068230033 0.49053511
-0.076774262 -0.068239577 0.47506803
-0.085863426 -0.016526651 0.4877775
-0.13193211 0.064386882 0.51388544
-0.041852146 -0.031507835 0.519144
-0.067107543 0.035768084 0.52848703
0.068686008 0.072619177 0.59047085
-0.044800591 -0.0023639549 0.52649927
-0.13864391 0.080555968 0.52136153
-0.082649216 -0.0050583119 0.49769101
-0.0094124358 0.03371013 0.55214834
0.11305773 0.035415929 0.5929687
-0.096934974 -0.0079616802 0.48542282
-0.089188285 0.068936422 0.53058165
-0.050758161 0.025732556 0.53246677
0.099130414 0.0428796 0.60307878
-0.097685181 0.037612926 0.51194304
0.070415072 0.038819231 0.58058566
-0.014964566 0.045793358 0.55572027
-0.076924399 0.070208639 0.53624707
0.049011894 0.031740423 0.57222778
-0.14262344 0.0050926092 0.47999755
-0.087163523 0.032036941 0.51427478
-0.10961185 0.043731246 0.50965458
-0.042214923 -0.00031999155 0.52839226
0.15405118 0.037680093 0.59297007
-0.044968054 -7.8213445e-05 0.52718019
-0.046298977 0.026192965 0.53509295
-0.11096216 0.017469006 0.49681434
-0.046738092 0.033608783 0.53753054
0.046549559 -0.020404864 0.5586316
-0.043086153 0.028113389 0.53750259
-0.056201063 0.079639621 0.5493353
-0.018371567 0.023135293 0.54599714
0.046420101 -0.023805348 0.55780655
-0.00064704951 0.074536659 0.5676415
-0.074997462 0.037642512 0.52345228
-0.074275777 0.053386036 0.52991277
-0.0089870188 0.036216203 0.55294359
0.01227825 0.077886231 0.57532543
0.1531572 0.036052994 0.59255463
-0.037618976 -0.053539097 0.52048463
-0.031096043 0.035197657 0.54438066
0.097537078 0.03441339 0.58825254
0.0092969527 0.0071591698 0.55229825
0.10205001 0.020205969 0.58603173
0.033471715 -0.025286542 0.55293405
0.055242587 -0.013674956 0.56325501
-0.09525533 0.07904131 0.53096396
-0.098763086 0.036297958 0.50931245
-0.12053225 0.081754096 0.52835804
-0.028558668 -0.043798391 0.52646369
0.033781234 -0.01945819 0.5542959
-0.020025447 0.026743505 0.54633427
-0.049601015 0.054300275 0.54327631
-0.087555878 -0.0068730875 0.49330968
-0.044890903 0.038362797 0.5402171
-0.0011727522 0.029507291 0.55434525
-0.016750269 0.041158244 0.55205548
-0.080475472 0.073255159 0.53478384
-0.083234444 0.075123817 0.53690082
-0.041456945 0.027715195 0.53785741
0.0085731624 -0.075223476 0.52664906
-0.046800047 0.079439059 0.55408472
-0.056261778 0.029615065 0.52968383
-0.087117024 -0.008879791 0.49243492
-0.089596182 -0.011076673 0.48907629
-0.087157324 0.031888764 0.51445276
0.052108239 0.03294551 0.57202512
0.078155585 0.013428455 0.57710952
0.0092597324 0.074446037 0.57319647
-0.039986696 0.054272745 0.54515481
-0.083137408 0.053346086 0.52472591
-0.046865653 0.0010305209 0.52527636
0.033522237 -0.029506465 0.55195647
-0.041561034 -0.0072847679 0.52635098
-0.10558679 0.033965565 0.5065375
-0.037299268 0.038088176 0.54290086
-0.019747647 0.00077916088 0.5388943
0.15558822 -0.031958897 0.58283681
0.049125187 -0.018011309 0.56027138
-0.081910089 -0.0027864277 0.4986496
-0.0050031738 0.068323642 0.56547683
-0.13357915 -0.013706063 0.46714395
-0.08322569 0.053010009 0.52515507
-0.032964561 0.046383426 0.54759324
0.042051785 0.030966442 0.57127696
0.044588506 -0.025626238 0.54052895
0.033903383 -0.01935241 0.55419701
-0.0276733 -0.040970743 0.52807134
-0.017226499 0.0268346 0.54738355
0.06254749 0.074786693 0.58804756
0.089831263 0.012895186 0.58062065
0.0087978337 0.0094852764 0.55299997
0.034075193 0.029179994 0.56538594
0.086025424 0.044275369 0.58723724
0.026885759 -0.033745158 0.54711199
-0.095261782 0.041728333 0.51450729
-0.15442853 0.082297996 0.51741898
0.0013408801 0.044414345 0.56069171
-0.091913037 0.042888474 0.51593554
-0.03215215 0.044345815 0.54686815
0.001664612 0.029698575 0.55699658
-0.077650383 -0.02172102 0.49377546
0.099565208 0.03256176 0.58844697
-0.040859755 0.053355206 0.54645115
-0.013828033 0.0068009538 0.55414313
-0.12967603 0.052665569 0.50723046
-0.067142233 0.07481277 0.54139113
-0.074969552 0.076279268 0.5381344
-0.043353211 -0.070370868 0.50303805
-0.082267143 0.0531337 0.52569628
-0.073681265 0.030748209 0.52043939
-0.10416063 0.018101882 0.49837711
-0.10845956 0.049268659 0.51282495
-0.072292887 0.0043582325 0.50972134
-0.046266984 0.054411933 0.54474634
-0.073731966 -0.046229266 0.48384273
0.15549864 0.026861075 0.58900243
0.033634368 -0.027218841 0.55272496
-0.085016504 -0.012131386 0.49204138
-0.10296578 0.012257584 0.49546751
-0.093581937 0.031625383 0.50977558
-0.028748553 0.012923157 0.53899568
-0.13320902 -0.010783365 0.4694584
0.03139326 -0.023699231 0.55289501
-0.10171372 0.0047525517 0.49098927
-0.040608626 0.050996602 0.55069292
-0.10801385 0.026317183 0.50105387
-0.041808002 -0.0074726553 0.5267216
-0.03659565 0.028274192 0.53991234
-0.052650344 -0.058766641 0.50557673
-0.028256241 0.024641559 0.54258341
-0.13239485 0.052296825 0.50663114
-0.017055862 -0.027172586 0.52601832
-0.064182714 -0.0063905753 0.51126701
-0.047197148 0.00038029422 0.52487051
0.040735204 0.040576767 0.57187033
-0.033120316 0.03946868 0.54474044
-0.13722694 0.00050603785 0.47697306
-0.04096235 0.05906463 0.54854953
-0.032556046 0.035499942 0.54369128
0.1527961 0.040013105 0.59313631
0.053118613 -0.0078396397 0.56495529
0.14856125 -0.018396759 0.58275014
-0.08682435 0.058446974 0.52664012
0.10291819 0.065301761 0.60147357
0.051847219 0.030377518 0.57278574
0.12276071 -0.022662265 0.58249819
-0.054060157 -0.017819177 0.51399159
-0.067957491 -0.011524523 0.50600457
-0.088293806 0.0033655658 0.49870571
-0.093980424 0.029231185 0.50978923
-0.038482465 0.004742533 0.53195673
-0.15255652 0.084948033 0.51939762
-0.020652566 0.022375287 0.5448243
0.04996657 0.071028396 0.58279383
-0.1210131 0.031387046 0.49858075
-0.13827747 0.060263801 0.5106039
-0.041991815 -0.0064487141 0.52716368
0.080756091 0.038644571 0.58404028
-0.12797657 0.029973708 0.49651805
0.061167307 -0.027821744 0.56318325
-0.071816511 -0.064555988 0.48172435
-0.033147536 0.056315474 0.5511508
-0.13501392 -0.0070470083 0.47253838
-0.094655626 0.037567984 0.51270336
-0.096989699 -0.024235195 0.47295672
-0.096287154 -0.025121106 0.4715974
0.03782377 -0.0082182074 0.55835801
-0.076032482 0.05731494 0.53032845
0.10503545 0.014886537 0.58567363
-0.027915267 0.061145339 0.5556758
-0.096488237 -0.024960531 0.47157323
-0.093375228 0.029390698 0.50926888
-0.026233353 0.069059841 0.55778062
-0.087580837 -0.0068188994 0.49326223
-0.041639172 -0.016718427 0.52341896
-0.052529044 -0.019634942 0.51377952
-0.0037276838 0.0041129771 0.54632354
-0.087915003 -0.025596006 0.48063952
-0.082240231 -0.026951274 0.48486468
0.094760478 0.00078257278 0.57917339
0.062010515 -0.027309269 0.56233233
-0.042731766 -0.016509505 0.52314347
0.10724903 0.019306939 0.58759695
-0.03962322 0.069214895 0.55266482
0.047353912 0.040886316 0.57410049
-0.11639843 0.079595901 0.53276026
-0.076051094 0.056979604 0.53070867
-0.06740579 0.040476419 0.52808762
-0.10031176 -0.022301648 0.47128502
-0.046359282 -0.025026944 0.51762402
0.029577659 0.078053586 0.58044904
-0.077450283 -0.021035669 0.49282444
-0.13702968 0.080064341 0.52178693
-0.03836922 0.022678867 0.5374245
-0.10318257 0.079683498 0.53281838
-0.09533193 0.037407391 0.51271975
-0.057175715 0.038097635 0.5324862
-0.091162138 0.036482725 0.51388448
-0.06423007 -0.017427886 0.50614405
-0.032244653 -0.027325561 0.52835625
-0.080701105 -0.016414883 0.49277627
0.043035883 -0.014990998 0.55811763
0.0072438894 -0.065306418 0.52781928
-0.10657882 0.03300688 0.50554532
0.052056175 -0.019594492 0.56039149
0.15454528 0.023681628 0.58422613
-0.044381339 0.021396618 0.53448129
-0.064287372 0.029120304 0.5254752
-0.046121184 -0.037398893 0.51535493
-0.10271879 0.036748648 0.50852442
0.039227337 -0.024662146 0.55514902
0.076940753 0.00016755525 0.57347423
-0.08709088 -0.0088409074 0.49236467
-0.098732457 -0.0064734682 0.48577943
-0.093123749 0.029451448 0.50905895
-0.049868446 0.018619819 0.53111953
-0.074618012 0.030589588 0.5200727
-0.14073527 0.076667063 0.51878721
-0.03225803 0.023789236 0.5403592
-0.040182762 0.068394937 0.55138254
0.068866804 0.075753756 0.60287654
-0.077031337 0.00029121249 0.50373572
0.047378734 0.056224734 0.57792187
-0.086737476 0.056281336 0.5255788
0.0104883 0.0098800063 0.55341005
-0.011526112 0.020412361 0.54744369
-0.060606159 0.041278776 0.53214794
0.046830844 0.04018617 0.57373536
0.046674483 0.055838224 0.57773256
-0.13293794 -0.008188488 0.47135177
-0.023222836 0.037112821 0.5480662
-0.031502321 -0.04837168 0.52477491
-0.070979759 -0.072125413 0.48422223
0.061878841 0.028346419 0.57608217
0.074268095 0.014122078 0.57588404
-0.11767069 0.08469376 0.53113419
-0.091467679 -0.020208366 0.48072386
0.0083544198 -0.065069214 0.52805454
0.072863974 0.073939249 0.59102267
-0.039731938 0.071031392 0.55293804
-0.091518067 -0.020287726 0.48087326
0.047101457 0.055396065 0.57744718
-0.039262462 -0.029601224 0.52155048
-0.13612865 -0.017320385 0.46540567
0.078294642 -0.0020451087 0.57340312
-0.033985168 0.021639029 0.53893387
-0.040086053 0.005436799 0.53166312
-0.035103343 0.020716861 0.53829938
-0.07222309 -0.027893212 0.49485356
-0.09728127 -0.033592064 0.46393856
-0.070128843 -0.063330613 0.48837045
-0.047671102 0.078602836 0.55243427
-0.046129648 -0.01123295 0.52334726
-0.035606619 -0.018499447 0.52570379
-0.041057527 -0.013404388 0.52476329
-0.0013005591 0.034127135 0.55585557
-0.064424783 -0.021313213 0.50536859
0.046753962 0.057257473 0.57774532
-0.041211687 0.018968109 0.53562748
0.046522055 -0.02570104 0.55754334
-0.075702824 -0.075140558 0.47680864
-0.077133387 0.048109502 0.52756286
0.08160235 0.010287858 0.57747966
-0.094280384 -0.017177979 0.48220953
-0.0071828384 0.026502658 0.55093062
0.042945877 -0.01517322 0.55872214
0.082275569 0.022927951 0.57929444
0.0089427941 -0.064744666 0.52834904
-0.035339564 -0.017480394 0.52469891
-0.081353731 -0.0026522663 0.49926034
0.027071379 -0.0054642842 0.55533475
-0.076016963 0.049106356 0.52590692
-0.030932175 6.7589383e-05 0.53380799
0.18122154 0.010415332 0.60480285
-0.052529354 -0.03535188 0.50891972
-0.053518936 0.025998911 0.52914143
-0.07184092 0.051480953 0.53014767
-0.035740875 0.053192046 0.54878193
0.026974557 -0.005773806 0.55555451
-0.086902432 0.0052188504 0.5010035
0.039264873 -0.013468692 0.55725741
-0.0017597047 0.031372465 0.55419546
0.1794662 0.0067732721 0.60317266
0.073779322 -0.0013292999 0.57217473
0.0041022399 0.01833684 0.55263537
-0.051818609 -0.035153691 0.510113
-0.14737588 0.048342966 0.50127596
-0.096299112 -0.013933936 0.48287532
0.014286652 -0.0062967725 0.55066466
-0.037404757 0.054839641 0.54762906
0.054373425 0.07719291 0.59540808
-0.0074046305 0.0086813215 0.54584122
-0.10224727 0.015222232 0.49661008
-0.067744307 -0.048547689 0.49028057
-0.070953049 -0.0047029415 0.50690216
0.075227223 0.071083687 0.59106064
-0.038699389 0.052206285 0.54693204
-0.0073505086 0.00878633 0.54573017
0.039271951 -0.0034274315 0.55972558
-0.0090440726 0.025249323 0.55023867
0.041247223 -0.016308181 0.57205582
-0.037660126 -0.015553847 0.52393091
-0.036459222 0.039370358 0.54363692
-0.076285556 -0.014573744 0.49765229
-0.056410041 0.011817988 0.52872109
-0.092327416 0.035394114 0.51087898
0.070476763 -0.00096296793 0.5711596
-0.10195056 0.023662005 0.50273126
-0.039226644 -0.015814932 0.52330226
0.029214274 0.077910379 0.58072287
0.11024117 0.034845673 0.59154588
-0.011173336 0.025042525 0.54918319
0.036297657 -0.0031355112 0.55923128
-0.06537617 -0.0093076993 0.50826371
-0.081667945 0.032951035 0.51789236
-0.10859461 0.049423002 0.51265854
-0.063068442 -0.0056826165 0.51233447
-0.13009855 0.083801515 0.525989
-0.039115917 0.0077680419 0.53258294
0.031766132 0.046453197 0.56849408
0.15908755 -0.032360289 0.58396649
-0.064004347 -0.046133883 0.50076306
0.014726014 0.0092457673 0.55467033
-0.079475306 -0.017407307 0.49283001
-0.1401289 0.086143084 0.52434236
0.014153063 -0.0068191593 0.55012214
-0.1377866 -0.0066753812 0.47313374
-0.085155822 -0.011136889 0.49300435
-0.10679606 0.033517439 0.50567073
-0.04816493 -0.001139655 0.52673626
-0.02862956 0.085354455 0.56866199
0.07073082 -0.0004812211 0.571257
-0.031471655 0.081244126 0.56142849
-0.071771391 -0.049436964 0.48541209
-0.031968947 0.056995202 0.54993087
-0.1231702 0.081150576 0.52679843
-0.030683499 0.020811401 0.53983456
-0.042289797 -0.069235153 0.50401998
-0.063059665 -0.045978729 0.49951434
-0.0800438 -0.005348613 0.4987686
-0.10205925 0.013118687 0.49588937
-0.034811124 0.070575662 0.55417639
-0.075945631 0.049150884 0.52582258
-0.060263917 0.082643762 0.55152339
0.011360422 0.032590054 0.55973935
0.014408247 0.0090271095 0.55503732
-0.040980149 0.025003772 0.53798276
-0.04065498 -0.050767701 0.51900506
-0.045984536 -0.054310493 0.51406556
-0.042391319 0.05998566 0.54822278
-0.059499502 -0.071005411 0.49201852
-0.083227865 0.0251907 0.51310909
-0.043810014 -0.034891941 0.51754856
0.16607773 0.010474298 0.59759313
-0.035956204 0.070714496 0.553608
-0.0426162 -0.050110158 0.51772904
-0.038475648 -0.0023752851 0.52988964
-0.055445723 -0.072655 0.49487361
-0.039128419 0.010713789 0.53342998
-0.054514121 0.018958034 0.52703726
-0.051644165 0.058018785 0.54722154
-0.050485495 0.065199897 0.54605138
0.058584373 0.029245367 0.57502216
-0.037006613 0.030828616 0.54084486
0.027519448 0.071349874 0.57605648
0.02677837 0.0048612859 0.55787534
0.056731448 0.0031860303 0.56780875
-0.03659185 0.077209815 0.55687457
-0.070917673 -0.0053054546 0.50609452
-0.07992284 -0.017528694 0.49158648
0.092508957 0.0036335825 0.57916617
-0.051179357 0.064894602 0.54734349
-0.13668555 0.078522861 0.52182496
-0.096468896 0.036207289 0.51565862
0.077676833 0.01243284 0.57667828
-0.039873254 0.072001755 0.55242503
-0.053434744 0.025478583 0.52958798
-0.043815646 0.055621445 0.54595268
-0.0066269529 0.024922451 0.55114871
-0.13480097 0.0045784265 0.47853762
-0.040864784 0.063165501 0.54946166
-0.044922508 0.010257928 0.52326351
0.039130311 -0.028712528 0.55393434
0.10468942 0.020001259 0.58678854
-0.043825734 0.072811753 0.55157876
-0.076778956 -0.012611402 0.49607387
0.044308215 -0.013896785 0.55937201
-0.06494458 -0.016166139 0.5067296
0.038602784 -0.0033504793 0.55960894
-0.04911175 0.034267873 0.53420013
0.064089313 -0.0002189012 0.56959021
0.040815048 0.00033045566 0.56159931
0.074477501 0.0090942951 0.57490784
0.055168696 -0.021542039 0.56109864
-0.046365678 0.03944093 0.53988469
-0.0067814873 0.025334688 0.55097872
0.080416135 0.03256299 0.58259755
0.027408173 -0.0026764704 0.55639803
-0.055270966 0.015375908 0.52627128
-0.10568698 0.032608248 0.50573736
0.083772212 0.015258501 0.57922882
-0.0010304793 0.019607734 0.5516364
-0.093534686 0.026122324 0.50794995
-0.02922589 0.08520624 0.56902784
-0.084569298 0.040941529 0.5472818
-0.082510024 0.024182567 0.51278096
-0.065183006 -0.00042285709 0.51093829
-0.13067561 0.049493656 0.50561476
-0.0023096162 -0.066725127 0.52391344
-0.1283213 0.079439409 0.52439505
-0.04251755 0.047724113 0.54437149
0.046227198 0.026182245 0.57086283
0.011717107 -0.062902175 0.53044671
-0.050517555 0.026998393 0.53291965
-0.077429593 -0.013340036 0.49748126
-0.086231664 -0.054325614 0.46375278
-0.14915338 0.015148412 0.48448068
0.0099198893 0.00053196872 0.5507623
-0.054527305 0.034691822 0.53205991
-0.011826508 -0.047322359 0.53961641
0.0058710095 0.022238418 0.55496424
0.061490044 0.0023465813 0.56890059
-0.076992899 -0.013375514 0.49853453
0.0059427707 0.077728212 0.57219595
-0.119055 0.030535273 0.49890971
-0.037207022 -0.013024932 0.52684629
-0.055870865 0.028066427 0.53049535
-0.074185543 0.020300448 0.51548141
-0.14039281 0.08591982 0.52463686
-0.017801823 0.072035894 0.56322765
0.067479715 0.010043729 0.57310808
-0.076733224 0.035924796 0.52156931
-0.055716719 0.03173767 0.53037781
-0.027178107 -0.0093501974 0.53286481
-0.074980035 -0.025993336 0.49287385
-0.063066266 -0.01027745 0.51029843
-0.094104618 -0.022952164 0.476522
-0.040917147 0.023801344 0.53636044
-0.088230431 -0.045281399 0.46030408
-0.069616154 -0.048680972 0.48203659
0.091487214 0.030789265 0.58572811
-0.10677685 0.053789444 0.51517791
0.1828541 0.013857824 0.6062367
0.088556305 0.024153851 0.58567119
0.0063562454 -0.072315067 0.52610177
-0.067473955 0.026915168 0.52331358
-0.018795907 -0.069319963 0.51664674
0.031739596 -0.032336771 0.5513947
-0.097634621 -0.017489601 0.47753623
0.019485116 0.039781839 0.56451476
-0.058995802 -0.074276797 0.49180433
-0.066870116 -0.015473071 0.50572175
-0.096396327 0.0026832861 0.49393472
-0.096053854 0.0027631633 0.49358827
-0.067755468 -0.0017017715 0.51169741
-0.078522779 0.055115994 0.52837396
-0.088698618 0.060549449 0.52592659
-0.062591076 0.0078973332 0.51821721
0.04427442 0.042343024 0.5734272
0.020246001 -0.012746729 0.55148494
0.04222507 0.076297484 0.58430398
-0.0022997211 0.00084784266 0.54565966
0.0026256235 0.023256481 0.55416358
-0.087757416 0.051446155 0.52223945
0.030021397 0.076672994 0.5792287
-0.083872385 0.036478341 0.51726478
-0.040777683 -0.044581976 0.51957059
-0.045102861 0.0095322626 0.5240643
0.00096279324 -0.066766702 0.52468264
0.15175743 0.022349114 0.58317804
0.095437773 0.062289819 0.59892249
-0.030870335 0.072570473 0.55610073
-0.078460857 0.055871602 0.52894962
0.052500732 0.0026450309 0.56626838
-0.046775233 0.066867337 0.54867935
-0.12461086 0.029800385 0.49729821
-0.065703861 -0.014766939 0.5039221
-0.14809966 0.085210942 0.52125597
-0.10394193 0.03876169 0.50909919
0.018570948 0.017664088 0.56142861
-0.025082316 0.0065861042 0.53833425
-0.047988676 0.035138033 0.53691089
-0.13630994 0.062300224 0.5118075
-0.039382145 -0.047192462 0.5201692
0.057206258 -0.014546757 0.5638352
-0.095284574 0.00060763583 0.49319252
-0.02079265 0.030807693 0.54660916
0.032479793 0.0055473698 0.56028658
-0.070551537 0.015812457 0.50832212
0.05869332 0.0044209361 0.56859446
0.10667378 0.031634189 0.59027231
-0.041161392 0.063414209 0.54968983
-0.068868212 -0.0025534183 0.51151246
-0.019135084 -0.048330493 0.52906251
0.048577026 -0.040872727 0.55529565
0.014795409 0.0045961994 0.55343711
0.047272779 0.041593276 0.57426286
-0.089023277 0.0062894896 0.49934816
-0.01882511 0.073256329 0.56217402
-0.040648427 -0.0069331382 0.52750486
0.077139094 0.034831543 0.58221233
-0.065912969 0.034438428 0.5265609
-0.086689405 0.042604581 0.51988697
0.00033973434 0.0089105731 0.54936594
-0.1292949 0.084912695 0.52693778
-0.042360421 -0.010769142 0.52566659
0.0038953209 0.017555945 0.55295426
-0.088449985 -0.02340054 0.48172849
-0.052216399 0.011026315 0.5262906
-0.043333262 0.078648843 0.55435079
-0.10240012 -0.0076781539 0.48312685
0.058007564 0.047615763 0.57921726
-0.068708539 -0.072627433 0.48511904
-0.093854621 0.077447258 0.53569877
-0.095374979 0.0038808768 0.49419576
-0.040923998 0.0052355733 0.53100747
-0.082215086 0.024238672 0.51253581
0.044564903 0.076328598 0.58597594
-0.0017157639 -0.0086758938 0.54409271
-0.070480689 -0.074438825 0.47463527
0.0057995133 0.011689452 0.55224043
-0.072681352 -0.075253405 0.47851428
-0.077398375 0.049979743 0.49757743
-0.061806392 -0.031245969 0.50244015
-0.072902068 0.062936068 0.53452492
0.027275605 0.00087378029 0.55699301
-0.081320025 0.069920756 0.53320336
-0.0049767741 -0.067113459 0.52169406
-0.038713533 0.050749075 0.54679501
-0.088514909 0.0085986499 0.50168943
0.034906149 -0.060990945 0.53917772
0.064535066 0.077629261 0.60092121
0.01949748 -0.004513504 0.55313945
-0.054094475 -0.070273571 0.49655935
0.016552458 0.012185519 0.55666143
0.017461538 0.010824736 0.55745232
-0.16206096 0.079056472 0.51428032
0.1125534 0.022701517 0.58946848
0.028507125 0.004148338 0.55850124
0.11413389 0.040991716 0.59473145
-0.0032143455 0.0057121399 0.54784352
-0.066971019 0.080605328 0.54871601
-0.06586054 0.026159184 0.52345496
-0.1347488 0.049435593 0.50444782
0.049031641 0.00077035069 0.56530726
-0.071116224 0.071145199 0.53831136
-0.08671426 0.041608896 0.51853204
-0.033652894 0.04044253 0.54595405
-0.079444185 -0.041793019 0.47907606
-0.027765421 0.063922793 0.55591148
0.16179048 0.011865506 0.5964061
0.072141722 0.0055265492 0.5734877
-0.093034662 -0.043594301 0.46031305
0.10438721 0.021948194 0.58712941
0.024424706 0.04539841 0.56847048
-0.025278684 -0.068393402 0.51339495
0.063631639 -0.056488797 0.55020738
0.056646544 0.018861827 0.56462109
-0.081598356 0.015678976 0.50970995
0.05716528 0.00783752 0.56854111
-0.033681292 0.013227504 0.53664112
0.086662956 0.0024453294 0.57711333
-0.048026983 -0.052181587 0.5146181
0.072312206 0.0054098372 0.57339996
0.078384608 0.010590138 0.57657486
-0.044384338 -0.053339463 0.51514143
-0.10396042 0.038721748 0.50916082
0.073862888 -0.033081047 0.55734026
-0.084197447 0.01518827 0.50722885
0.060641695 0.00070799107 0.56815237
0.033735137 -0.0039351033 0.55834991
-0.10528786 0.039486919 0.50979167
0.00057191862 -0.0089947153 0.544743
0.085400656 0.010633924 0.57863951
-0.082236364 -0.022509199 0.4871549
-0.032739278 0.0177362 0.53852791
0.056506574 -5.7487991e-06 0.56687719
-0.090365097 0.057029705 0.52408552
0.032038618 -0.042589039 0.54998606
-0.016399253 0.017228428 0.5449937
0.077199824 -0.054470416 0.55488127
0.1047377 0.021005783 0.58706206
0.052521575 -0.029462608 0.55832756
-0.041263502 0.036935311 0.54100388
0.024329122 0.04553115 0.56845397
0.024063561 -0.012568691 0.55311251
-0.090628006 0.063412443 0.52609831
-0.016638421 0.0054997918 0.54138213
-0.070934936 -0.067004733 0.47791249
-0.10751971 0.010492912 0.49337173
-0.081863768 -0.023089686 0.48843184
-0.1110558 0.055179998 0.51463962
-0.045121301 -0.035879899 0.51608008
-0.15091892 0.084088311 0.5193966
-0.07684312 -0.0093072345 0.50017279
-0.12582298 0.085494615 0.52802652
0.0063158479 -0.077922672 0.52517027
0.045253992 -0.0083735622 0.56083155
0.072677739 0.0056509729 0.57305044
-0.12701513 0.0061528017 0.48110712
0.077918068 0.070033945 0.59167951
-0.096057832 0.012074575 0.49956053
0.05025509 0.043982714 0.57443947
0.059303939 0.010721404 0.57046288
-0.031678353 -0.072167978 0.51115239
-0.11866446 0.086584792 0.53328466
-0.024863685 0.023094071 0.56477714
-0.056519359 -0.018233048 0.51167166
0.067592137 0.067658395 0.58810848
0.15992907 0.036224369 0.59505612
-0.088044502 0.05353516 0.52254647
0.098495722 0.0020196175 0.58048135
-0.070984006 -0.008238974 0.50445145
0.0031681913 -0.070699289 0.52481866
0.11575262 -0.02675778 0.5788855
0.046533596 0.044737909 0.57470679
-0.11133174 -0.025465999 0.46130696
-0.062626675 0.050569572 0.5351091
0.055033889 0.010332756 0.56891865
-0.064663373 -0.032995921 0.50022244
-0.094060399 -0.029674435 0.47036254
0.15521593 -0.0097865351 0.58692789
0.0091776904 -0.077017002 0.52666986
0.049138971 0.051023036 0.57712787
0.033885125 -0.04147961 0.55100125
-0.094520308 0.0037176965 0.49504188
-0.044736844 -0.027655842 0.51956177
0.0061802161 -0.045931339 0.53994292
0.042099155 -0.060774501 0.54402941
-0.11352044 0.0026868852 0.48160106
0.11254649 0.022676283 0.58947968
-0.066471003 0.080783509 0.54836136
-0.075152963 0.030313388 0.51959795
-0.051919259 0.0057338635 0.52749246
-0.096688256 -0.031680319 0.46594888
-0.014745828 -0.039833821 0.53093994
-0.061172154 -0.012687955 0.51054829
-0.062558375 0.050702557 0.53493774
-0.009188544 0.029814122 0.5508883
-0.0022515261 0.0017538363 0.54617882
0.16480735 0.022167193 0.5922426
-0.033786304 0.035381895 0.54347456
-0.11158185 0.044855416 0.50953144
-0.15770335 0.088267356 0.51872617
0.004361779 -0.076525182 0.52417463
-0.048114154 0.012299919 0.52891761
0.020152992 0.0025088582 0.55483288
-0.087914094 0.052528929 0.52298772
0.067711465 0.00539394 0.57198477
0.076039039 -0.055304032 0.55449569
0.060472857 -0.053488422 0.54981548
0.076889493 0.015951026 0.57727605
0.059974503 -0.042614881 0.55952561
-0.067166157 0.027381448 0.52262259
-0.011596709 -0.03637277 0.53318876
0.005344531 0.026743958 0.55621028
0.067948371 0.0087182503 0.57106346
0.058905367 -0.018580012 0.56342667
-0.12818006 0.079248369 0.52465552
0.0019377213 -0.0062794765 0.54580283
-0.11978175 0.0030688862 0.48061046
0.0068376637 -0.010172296 0.5469988
-0.016875001 -0.05247853 0.53030699
-0.088105693 0.05992667 0.52576238
-0.057740822 0.03147931 0.52906078
0.058290798 -0.051025845 0.55186021
-0.041764334 0.072854057 0.55263412
-0.05065608 0.05595487 0.54308432
-0.071446568 0.060523946 0.53389627
-0.010092082 -0.0055999868 0.54105127
-0.055945493 -0.018708287 0.5118807
7.2901072e-05 0.0077679846 0.54880661
0.16051744 -0.055720013 0.5795024
-0.023040187 0.014909927 0.54094422
-0.060564589 0.010375236 0.52061689
-0.047331333 -0.003605251 0.52428555
-0.13169618 0.086499088 0.52812314
0.1056307 0.03158655 0.59005177
-0.045128547 0.060096461 0.54672521
-0.052223381 0.054864127 0.54163975
-0.028818306 -0.0131286 0.53115469
-0.03112247 0.090438619 0.56755823
-0.083113052 -0.060130965 0.46700937
0.043228827 0.043724209 0.57352549
0.053862076 -0.0090699065 0.56380242
0.018561594 0.08192353 0.58097839
-0.095837533 -0.019517062 0.48203519
-0.10448587 -0.019935627 0.47272
0.019395972 -0.010308245 0.55193859
0.081063062 0.0066564702 0.57632124
-0.069374211 -0.073189139 0.50230348
0.053933121 -0.056392994 0.54845309
-0.046230439 0.060940683 0.54649442
-0.052191149 0.0082885856 0.52371758
-0.051363532 0.067730494 0.54656523
-0.046936907 -0.0039404668 0.52424181
-0.099518776 0.00088392064 0.48992491
0.062957928 -0.0086657768 0.56868786
-0.037523646 -0.072385095 0.5048269
0.033684295 0.0060577481 0.56014192
-0.032965984 -0.049780007 0.52161694
-0.080465958 0.072135314 0.53437251
-0.070769407 -0.014088136 0.50160921
0.0099040736 -0.066654935 0.52730447
0.018519195 0.081965216 0.58097279
-0.10261281 -0.0060446016 0.48371288
0.018848833 -0.040676937 0.53706211
-0.10790612 0.00062408898 0.49133882
0.068974547 -0.00049188687 0.57065898
-0.097958803 -0.030989248 0.46560979
0.043010652 -0.018029734 0.5576793
-0.12617856 0.085357077 0.5282203
0.025903003 -0.011367805 0.55266452
0.020811673 0.016450191 0.56136602
-0.060606167 -0.021214696 0.50735432
-0.033713918 -0.00089276372 0.53197354
-0.075009748 -0.076073982 0.47702706
-0.094166532 0.049187087 0.51854849
0.020926988 0.0050433874 0.55368543
-0.094025336 -0.035961866 0.45485723
-0.087144248 0.0098175965 0.5033257
-0.0083206203 -0.044161558 0.50617641
-0.09420535 0.048795067 0.51868242
-0.04701044 -0.0041958895 0.5245263
0.06826818 0.05363087 0.58532208
0.10374557 0.0021105914 0.5822624
0.15280113 0.02569644 0.58442014
0.016650535 0.023018181 0.55872446
0.044597019 0.044085734 0.57246786
-0.0023161289 0.014422741 0.54987985
0.065008655 0.026317783 0.57702458
-0.052430943 0.066596225 0.54596001
-0.11062129 0.05754463 0.51572955
0.12137687 -0.030097349 0.58034432
0.049797274 -0.0094478484 0.56226665
-0.038702585 0.063649595 0.55042887
-0.13296652 0.030371767 0.49530628
-0.0090660565 0.028354678 0.55022722
-0.09889935 -0.02830567 0.46874329
0.071178831 0.054486558 0.58652985
-0.053004853 0.021414625 0.52917987
0.00098166021 -0.079830199 0.54086345
-0.0038141764 -0.070687361 0.52355856
-0.10826802 0.024909832 0.49898794
-0.044355791 0.08193823 0.55560392
-0.043772411 -0.030029509 0.51930392
-0.10713884 -0.020201417 0.46802777
-0.078901447 -0.065869376 0.47137353
-0.091419488 -0.047200389 0.46848774
-0.13601503 0.0073081274 0.48015052
0.012977079 0.0095204534 0.55466431
-0.10715403 0.056742154 0.51649344
0.051786862 0.02559194 0.57108009
-0.019049542 -0.066596016 0.51652157
0.18289664 0.016260786 0.60704195
-0.089536928 0.061874278 0.52879488
0.031547684 -0.0087242713 0.55613565
0.0192079 0.081907324 0.58066976
-0.080459885 -0.029931061 0.48489612
-0.036483571 -0.071610667 0.50311911
0.10145659 0.069299713 0.60223609
-0.12504382 0.0026837965 0.47711319
-0.15568163 0.04630816 0.49922147
-0.019835901 -0.053914759 0.57055122
0.035528596 -0.055113982 0.52257031
-0.14601646 0.039698258 0.50187546
-0.0061131041 -0.072687671 0.52130491
-0.083633982 -0.063135996 0.46592483
0.01456232 -0.070040964 0.52922696
0.037190598 -0.010089836 0.5576461
0.059209708 -0.035573211 0.56093478
-0.12602399 0.079327032 0.52522677
-0.060273811 -0.029712994 0.50463951
0.017616879 0.014298154 0.5601598
0.033476841 0.0030238573 0.55768061
-0.073544294 0.013196935 0.51334876
-0.071555972 0.076278709 0.54249519
0.035997055 0.0080455989 0.56165832
0.02987651 0.0087148454 0.56004113
-0.034060117 -0.0014930739 0.5324918
-0.062934466 -0.014136221 0.50861228
0.02278249 -0.0088240439 0.55336928
-0.070145167 0.059199795 0.53325635
0.054075804 0.086540997 0.59294212
0.012745666 -0.065093689 0.53019911
0.16072993 0.026485097 0.59326535
0.004944975 -0.042821828 0.53974181
-0.090913914 0.033467043 0.51305485
-0.086184852 -0.043482281 0.46958792
-0.10923217 0.001057717 0.48758096
0.041510001 0.011300208 0.56519508
0.029705985 -0.015455996 0.5542472
0.048667431 -0.012650142 0.56110299
-0.048209667 -0.054717615 0.51439601
0.025167217 0.0061238795 0.55742687
-0.066502675 -0.019049432 0.5040465
-0.072324008 0.021729613 0.5301134
0.06584201 0.0073846132 0.57308728
0.067537785 -0.027855089 0.56357068
-0.057719294 -0.029038506 0.5070191
-0.10934813 0.00089898938 0.48789179
-0.074922994 -0.076462217 0.47751838
-0.017102774 0.012677566 0.54374957
-0.0065274867 -0.075177118 0.52003211
-0.11802829 0.0061492692 0.48157021
0.0084662046 -0.068463959 0.52762008
-0.021846008 -0.01402208 0.53424573
-0.041564666 -0.043612294 0.51920485
-0.019968737 0.058228157 0.55915481
-0.1199379 0.048248466 0.51091111
0.0070363791 -0.012253895 0.54565507
-0.091663204 -0.04721687 0.45619291
-0.05897807 0.049179163 0.53511173
0.035903554 0.0089140953 0.5617435
0.068852171 -0.035817545 0.56361878
-0.035840757 -0.053162925 0.52430427
-0.094141513 -0.0039438466 0.49120197
0.063295029 -0.0064788493 0.56767952
0.08861912 -0.0044126371 0.57584381
0.018877819 -0.034652606 0.54563719
-0.059493553 -0.069200374 0.4991098
-0.0516304 0.022030616 0.53018773
-0.02099899 -0.068442218 0.53597641
0.02769432 0.013360817 0.56044972
-0.10123694 -0.031305112 0.46227071
0.081300959 -0.0044989162 0.57426697
-0.12039687 0.0068236268 0.48288351
-0.09999302 0.047852427 0.51548713
-0.0088257557 -0.070546366 0.51923716
0.05005179 0.026740991 0.56850362
-0.062583096 -0.037434496 0.50079978
-0.068327434 -0.024308955 0.49971533
0.017972909 -0.034960929 0.54661995
0.010927627 -0.065596744 0.53060776
-0.011311631 0.025959328 0.54945469
-0.093811497 -0.027958978 0.47063208
-0.028100088 -0.042407069 0.52891803
-0.062514901 -0.037173893 0.50049597
-0.079011977 0.049698923 0.52583146
-0.053900454 0.070317641 0.54776394
-0.045090269 0.059712611 0.54705793
0.093780696 -0.0032463393 0.57795966
-0.091350712 -0.048132289 0.45708957
-0.079276778 0.049296197 0.52641368
0.069520622 0.0045015914 0.57212847
0.060905207 0.047028493 0.58005631
-0.05030603 -0.030668564 0.51179802
-0.050057359 -0.072196387 0.49838048
0.13482957 0.00011000662 0.5758242
0.069136761 0.057816125 0.58655053
0.051481489 0.0071030967 0.5669359
0.068043865 -0.057840005 0.54557902
-0.019923486 0.0052512805 0.53964841
0.045779344 0.011890988 0.56599635
-0.063452698 -0.055253826 0.48451105
-0.089660101 0.0058381534 0.49838835
-0.1067254 0.049069688 0.51387441
0.042125411 -0.039169457 0.5539211
0.086304992 0.00036944079 0.57639855
0.049037762 0.011837811 0.56762999
0.0012357944 0.019136289 0.55270553
0.042415667 0.079112239 0.58968204
0.0088721626 -0.060113143 0.530554
-0.0086968979 -0.076708421 0.52305937
0.042406358 0.0088271536 0.56401998
-0.063588731 -0.059847921 0.49173975
-0.057754442 -0.058975246 0.48870197
-0.075867042 0.0056152577 0.50800663
-0.096224844 -0.0067532077 0.48692492
-0.12344865 0.030949885 0.49790773
0.14272356 0.0061115753 0.58056271
0.033417653 -0.010431873 0.55668426
-0.092886783 -0.022585319 0.4779622
-0.10937863 -0.027489172 0.46013671
-0.052367821 -0.02768402 0.51389921
-0.0077176522 -0.062550128 0.52332801
0.017125307 -0.055716928 0.53076226
0.05973842 0.016688295 0.57209557
-0.020409388 -0.068347462 0.51390356
0.030243987 -0.021712603 0.55285436
-0.053323764 0.059749935 0.543432
0.010586944 -0.059184816 0.52885842
-0.052037291 -0.015750481 0.51608723
-0.018139346 -0.01236939 0.53598601
-0.068721779 -0.037010722 0.49293694
-0.11395109 0.0072582983 0.48906681
-0.09825968 -0.025713328 0.47055188
-0.071659453 -0.016242547 0.50059599
0.04669049 0.013060922 0.56763995
0.13566962 0.00057815952 0.57515079
-0.056000706 -0.059613034 0.5056932
0.02251422 0.018973816 0.56311375
-0.052328866 0.071879983 0.54705292
-0.092156008 0.013627891 0.50252986
-0.019935986 0.026544658 0.56683666
-0.0013692365 -0.071520023 0.51996201
-0.062890127 0.049548976 0.53368044
0.13031811 0.027715614 0.59147257
-0.080795929 0.036926672 0.52006596
-0.11160862 0.043821659 0.50799429
0.049979456 0.039735794 0.57431924
-0.067195207 0.071848474 0.54029441
-0.073549882 -0.049654372 0.48290601
0.047679804 0.024680423 0.54657614
-0.072869845 -0.044408139 0.48538372
0.011158448 0.027763352 0.55850315
0.032107525 -0.0056326715 0.55747426
-0.041150618 0.05829994 0.54778254
-0.075839147 -0.031393427 0.48966867
0.058842722 0.067060225 0.58437294
0.070243813 -0.053632915 0.55282658
0.06202684 0.012915998 0.57135826
0.011404272 -0.01001033 0.54872656
-0.065324023 0.0025286612 0.51314968
-0.07664898 0.028748136 0.51769686
0.069715962 0.013780992 0.57443064
0.054679018 -0.028244961 0.55925226
-0.070330761 -0.034175653 0.49352482
-0.088748135 -0.01970393 0.4842537
-0.10602459 0.051721502 0.514229
-0.061710019 -0.025750905 0.50463694
-0.12601276 0.0052594375 0.4805809
0.12057626 -0.0075107687 0.58719707
-0.016951488 -0.013726451 0.53654861
-0.027039932 -0.013989309 0.53177178
0.019593041 -0.070674323 0.5291245
-0.11073889 0.0066319224 0.49016768
0.061487637 -0.017247325 0.5646978
-0.023588458 -0.013434774 0.53337604
0.072254665 -0.0057866429 0.57051134
0.061047431 -0.055013411 0.5491029
0.1502969 0.02667273 0.58381283
0.015553762 -0.012971119 0.54943895
-0.054849081 0.056535192 0.54090339
-0.070389174 -0.026731081 0.49616373
-0.0710278 -0.037455659 0.49594334
-0.055379871 -0.05917595 0.50461829
-0.070591465 -0.030696414 0.4933446
0.024239127 0.014964882 0.56876123
-0.10942414 -0.027258988 0.45980957
-0.084638767 0.0025692002 0.5006144
0.059937987 -0.060055114 0.54800349
-0.026584215 -0.052505791 0.52413625
-0.09355849 -0.025965348 0.47479835
0.078623243 0.036372196 0.58306623
-0.13696226 -0.0024915903 0.47566113
-0.059274927 0.0088459924 0.52108747
0.011863219 -0.057292897 0.53687191
-0.060841851 -0.004884779 0.5134576
-0.087686338 -0.027942186 0.47735289
-0.069659412 -0.045727976 0.48980936
-0.052572228 -0.019304888 0.51533759
0.059246633 0.06876152 0.58538467
0.0013364055 -0.067954257 0.52441174
-0.14291224 0.090243988 0.52239829
-0.053488001 0.065442696 0.54754931
-0.12460636 0.0071523902 0.4821291
-0.15797234 0.059543483 0.50505483
-0.053384434 -0.05093744 0.48221642
0.069543384 -0.059493676 0.5527035
-0.064150788 0.019949257 0.52181888
-0.045926262 0.070739448 0.55054283
-0.056444321 0.057319351 0.54034084
-0.094486743 -0.033550836 0.46710965
-0.022663927 -0.046874322 0.53058302
0.045384914 -0.058358375 0.54349542
0.054386437 0.010307366 0.56856579
0.059820507 0.058352739 0.58098978
-0.058370348 -0.019409455 0.51026356
-0.029111961 -0.016655035 0.53007644
0.0090696672 0.028356476 0.55786145
-0.067774244 -0.054446265 0.48781461
-0.091457874 0.030393558 0.5110113
0.021576211 -0.067035548 0.53566843
-0.058339365 -0.080076344 0.49508831
0.0067756516 -0.062045276 0.52842116
-0.022207271 -0.054800496 0.58188564
-0.051280547 -0.038923319 0.51011056
-0.066822216 0.02084999 0.52047706
0.13993283 0.0029010631 0.57174093
-0.073513798 -0.055885684 0.48256561
0.072404265 -0.051364638 0.55549949
-0.094702095 0.0054363473 0.49164137
-0.016957091 0.0066697905 0.54198664
0.011467794 -0.010273798 0.54880345
-0.075025529 -0.041475672 0.48492178
-0.093994923 0.053207036 0.52041113
-0.056101024 0.053425241 0.53941286
0.089627907 -0.034324624 0.56029344
-0.053072285 -0.032511573 0.50938326
-0.021618614 -0.012611243 0.53460562
0.029840007 0.018868718 0.56268334
-0.064828493 0.05455507 0.53546023
-0.058602944 -0.017290633 0.51071155
0.11220615 -0.02909884 0.57725775
0.0013867214 -0.01239927 0.5443731
-0.03420366 -0.016067445 0.52823788
-0.060605593 0.05341557 0.53651959
0.068045005 -0.033698127 0.56414503
-0.12828703 0.0090656569 0.48312402
0.0011739573 -0.07220076 0.5234279
-0.0776513 0.048469692 0.52549088
0.10198146 -0.0030045626 0.58048946
0.06549596 0.050521906 0.58302367
-0.033933017 -0.015336912 0.52838892
-0.024573047 -0.055823315 0.58461428
0.10217918 -0.0031488284 0.58037835
0.03731152 0.0072674216 0.56223965
0.0040507186 -0.010954322 0.54580921
-0.13397507 -0.017422231 0.4652262
-0.034656197 0.049768042 0.54803836
0.078286469 -0.027451718 0.56409061
0.066540018 -0.061938796 0.55219024
-0.088046774 -0.028424054 0.47831464
0.016292872 0.033459269 0.56222683
0.027013594 -0.020876713 0.55146945
-0.065692075 0.054636735 0.53516889
0.088608466 -0.022524642 0.56917918
-0.075190835 -0.00065048266 0.50582325
0.062531628 0.014256494 0.57238942
-0.088465236 -0.028722929 0.47911033
0.11014899 -0.027467519 0.57683975
-0.11111935 0.043031733 0.50862461
0.10636638 0.0029023713 0.58332783
0.028224749 -0.017053725 0.55318481
0.13937216 0.002595616 0.57218939
-0.055233199 -0.01556605 0.51797777
-0.019745858 -0.053745721 0.57904989
0.050014395 0.011967024 0.58178341
-0.062111545 0.0060868328 0.51693624
-0.015930332 -0.04068609 0.53218919
0.027894897 0.010677422 0.55968374
0.056772619 0.012771928 0.57059467
-0.11828522 0.02863916 0.49839133
-0.120437 0.02969363 0.4979437
-0.09501908 -0.041283023 0.46061853
-0.065668702 0.054663636 0.53512955
0.024320619 -0.074975751 0.53315395
-0.028116276 -0.047892377 0.52741253
-0.016519269 -0.019785596 0.53481728
-0.048418984 -0.0098928595 0.52322781
0.15740819 0.034369309 0.59370977
-0.083406508 0.050778639 0.52433431
-0.053122334 0.066001281 0.54323512
-0.024332624 -0.077455997 0.51209813
0.035575554 0.011322537 0.56362277
-0.016961275 -0.019971438 0.5353471
0.082601681 0.0084524741 0.57775939
-0.066023938 0.054076307 0.53591347
0.048716091 -0.01255963 0.5610311
-0.12881047 0.087615743 0.52681649
0.071067102 -0.050889459 0.55665714
-0.11055028 0.0033971998 0.48921809
0.01149942 -0.075299032 0.52782243
0.014440306 0.0050291647 0.57916743
-0.040961329 0.03772068 0.57712722
-0.1117116 0.044218589 0.52300286
-0.077651121 -0.015961552 0.53403759
-0.092965096 -0.016575623 0.51076353
0.015952311 0.005949859 0.58015907
-0.059665874 0.019239891 0.55949187
-0.059513532 0.019054092 0.55956954
-0.10109863 -0.024325276 0.48644581
-0.092620797 -0.02222709 0.50921631
-0.040851355 0.033842865 0.57677597
-0.092809677 -0.016805036 0.51076436
-0.042974986 -0.025475083 0.56477219
-0.085037939 0.022046331 0.53654212
-0.042096972 0.036049765 0.57618916
-0.0300675 -0.064879388 0.56675941
-0.038941696 0.029251076 0.57616025
-0.10125841 -0.022893826 0.48448837
-0.028681949 0.027698252 0.57767862
-0.0092750425 0.017050127 0.5788933
-0.070363864 0.041199658 0.55547386
-0.085730575 0.020519864 0.53541481
-0.050298635 0.066999547 0.57815623
-0.074005634 0.026034249 0.54873657
-0.028535331 0.015950093 0.5756892
-0.097419716 0.023846474 0.52525097
-0.042168345 -0.039677922 0.56293696
-0.10088421 -0.0083975298 0.49983352
-0.102639 0.042884991 0.52912217
-0.10280976 0.04039675 0.52676165
-0.059490014 0.034856092 0.56296176
-0.11102743 0.039384983 0.5209111
-0.088592939 0.044279139 0.54190266
-0.059874225 0.034467921 0.56353569
0.15997338 0.03718273 0.61700702
-0.041283857 -0.0035686637 0.56919265
-0.10579429 0.025002593 0.51798433
0.16048935 0.033904679 0.61577225
-0.1068597 -0.013171274 0.48444405
-0.072122939 0.024802487 0.55058408
-0.10159258 0.030084208 0.52410936
0.021075239 0.0070168842 0.58235991
-0.041934438 0.039857149 0.57644618
-0.085477084 0.028592324 0.53882045
-0.10996116 0.026960218 0.50768501
-0.039751802 0.03282509 0.57679999
-0.075059012 0.046620455 0.55404061
-0.045982208 0.066092633 0.58165699
-0.036416497 0.031879999 0.57678616
-0.03863484 0.037536319 0.57842427
-0.071907908 0.025099203 0.55015385
0.004796423 0.020601342 0.58197087
-0.04223473 0.039424695 0.57696778
-0.11322756 0.078644194 0.55964363
-0.02433297 0.026667178 0.57759678
-0.10999461 0.027011294 0.50762486
-0.11172145 0.051062584 0.52751559
-0.086431935 -0.090715528 0.5194701
-0.05699243 0.016042076 0.56057197
-0.044382602 0.038036168 0.57552618
-0.044597048 0.0094650909 0.56869167
-0.054656889 0.017270317 0.56207979
-0.071494356 0.039248306 0.55397874
-0.09596806 0.039750222 0.53298146
-0.11124897 0.051652107 0.52660346
-0.033309758 -0.063490696 0.56567603
-0.079441637 0.036849901 0.54384863
-0.031621534 0.064435571 0.58567846
-0.10895195 0.077610634 0.56266439
-0.082844779 -0.019376552 0.52695554
-0.042414811 0.042403448 0.57737505
-0.059795458 0.051348545 0.56245816
-0.060213264 0.032426048 0.56263667
-0.044308811 0.064884029 0.581765
0.079263352 0.063922033 0.60754836
-0.042517155 -0.0019404228 0.56898868
-0.048101109 0.019258488 0.57006568
-0.10531752 -0.022013281 0.46230426
-0.04225919 0.046602797 0.57829487
0.077227294 0.020453721 0.59244049
-0.031617042 -0.066269495 0.56532037
-0.034207374 0.014016239 0.57400674
0.064703181 0.059609618 0.60492152
-0.10321912 -0.0013159565 0.49388954
-0.041609656 -0.041932393 0.56219286
-0.042417627 0.0082730707 0.57073498
-0.10487559 -0.0025309115 0.49671018
-0.045284092 0.067144893 0.58045995
-0.044249948 0.013312887 0.57119256
0.058895342 -0.020214777 0.57593846
-0.096959777 0.026743921 0.52672637
0.08984521 0.023938069 0.59554625
-0.040937211 0.03760751 0.57708043
0.03540827 -0.024810674 0.57249641
-0.056429423 0.057392072 0.55508226
-0.038365226 0.03594562 0.57775211
-0.035076253 0.018909546 0.57455856
0.066918515 0.051415768 0.60369605
-0.043555509 -0.035748005 0.56309265
-0.027850503 -0.06283851 0.56689829
-0.039800562 0.042483848 0.57792014
-0.040463604 0.067827694 0.58410978
-0.11361882 0.036592979 0.51770461
-0.035326708 -0.064179868 0.56577551
0.081211999 0.062227972 0.60740668
-0.089224249 0.038518704 0.53956735
0.095035858 0.026661228 0.59779757
-0.11575703 0.073819637 0.55563509
-0.058648251 0.015567124 0.55937487
-0.039120972 -0.018021559 0.56734973
-0.084005453 -0.014729939 0.52360106
0.047712445 -0.010820549 0.57770658
-0.093447141 -0.014437039 0.51203483
-0.040465511 -0.022087619 0.56650347
-0.036160506 0.0398762 0.57922453
-0.06451273 0.022882383 0.55657172
-0.041969385 -0.019073062 0.56641239
-0.042488586 0.005750577 0.57029992
-0.10250238 -0.0060747028 0.49877051
-0.10215534 -0.0065821116 0.4988358
-0.087046891 0.025962509 0.53675503
-0.10020652 -0.013014286 0.49411967
