# .PCD v.7 - Point Cloud Data file format
VERSION.7
FIELDS x y z rgb
SIZE 4 4 4 4
TYPE F F F F
COUNT 1 1 1 1
WIDTH 703
HEIGHT 1
VIEWPOINT = 0 0 0 1 0 0 0
POINTS 703
DATA ascii
  4.84460734e-02   9.41802423e-02   6.06895198e-01   1.51118100e+06
  3.28676421e-02   9.24483606e-02   5.96294258e-01   1.58535420e+07
  5.79579500e-03   8.07073780e-02   5.77502235e-01   7.36932900e+06
  5.92207312e-02   7.55572541e-02   6.12151898e-01   7.56645400e+06
 -1.52543826e-01  -5.00632452e-03   5.29093231e-01   1.05139900e+06
 -1.28853256e-01  -3.35897479e-02   5.24457311e-01   2.23567400e+06
  4.73805899e-02   3.55049447e-03   6.04736821e-01   3.48625300e+06
 -3.25025635e-02   2.81424247e-02   5.36781399e-01   9.41124600e+06
 -2.37621957e-03   5.28560490e-02   5.65447320e-01   1.77615000e+06
  4.88962946e-02   7.15118785e-02   6.04255414e-01   1.05242700e+06
 -1.61121712e-01   1.47387937e-02   5.40635393e-01   7.23464000e+05
 -1.21279566e-01   6.64899964e-02   5.36704110e-01   6.11462400e+06
  8.89503515e-02   1.14954224e-01   6.37396022e-01   7.81522900e+06
 -1.98582103e-01  -5.85522692e-02   5.42802699e-01   1.47342830e+07
 -1.77357691e-01  -4.97737023e-02   5.33967768e-01   2.95836700e+06
  3.58623865e-02   2.43451837e-02   5.93032153e-01   4.33718900e+06
 -5.68055197e-03   7.92219519e-02   5.69882496e-01   1.55903690e+07
  1.60526651e-02   5.28549816e-02   5.78457760e-01   2.43228300e+06
  2.13057962e-02   7.07171586e-02   4.18110114e-01   7.09922500e+06
  1.45552451e-01   1.11871175e-01   6.77272833e-01   2.16885700e+06
  5.10028529e-02   1.24810946e-02   6.06962526e-01   1.31073000e+05
  1.12499975e-01   1.10855910e-01   6.53054975e-01   2.03752400e+06
 -8.76400929e-02  -2.26835138e-02   5.37025742e-01   1.11141190e+07
  1.10039363e-01   1.20018145e-01   6.52784422e-01   9.25829700e+06
  3.21493038e-02   1.52373698e-01   5.90577791e-01   1.34811090e+07
 -1.50793217e-01  -3.69511995e-02   5.26926536e-01   1.48011070e+07
  5.49155911e-02   1.19210962e-01   6.15821187e-01   1.03914100e+07
 -1.71633536e-01  -4.63802934e-02   5.31849666e-01   2.76150100e+06
 -1.72022619e-01  -4.60252168e-02   5.32446579e-01   3.55025000e+06
  7.71195156e-02   9.57053078e-02   6.25537068e-01   1.05165900e+06
 -1.14275126e-01   7.69870625e-02   5.39945241e-01   1.24957720e+07
 -2.99063826e-02   4.31815674e-02   5.46850785e-01   1.11719300e+06
  2.74290945e-02   1.05718724e-01   5.96028353e-01   8.01260400e+06
  1.11321820e-01   9.03321584e-02   6.51402451e-01   5.25317000e+05
  4.77451359e-02   5.14746336e-03   6.04818874e-01   2.23670300e+06
 -1.07629547e-02   5.88615532e-02   5.60746778e-01   1.77512300e+06
 -1.92595657e-01  -1.12596815e-01   5.43539709e-01   1.55913990e+07
  2.46153985e-02   7.48096135e-02   5.87508873e-01   3.02364500e+06
  4.31705891e-02   6.58269367e-03   6.01016196e-01   1.38011100e+06
  3.00059174e-03   6.54583476e-02   5.72069306e-01   7.10796600e+06
  7.05864338e-02   7.13429496e-02   6.19966074e-01   1.31457200e+06
  1.03618252e-01   1.75313820e-01   6.25643026e-01   2.77069200e+06
  5.41577427e-02   5.24340606e-02   6.07124485e-01   3.61423900e+06
  1.34267791e-01   9.98801841e-02   6.68541596e-01   5.19789900e+06
  3.19117717e-02   1.52126991e-01   5.90763378e-01   1.60467770e+07
 -9.60406575e-02  -2.18782734e-02   5.36161370e-01   1.06543410e+07
 -2.02643983e-01  -1.13954772e-01   5.53935686e-01   2.56721800e+06
 -2.88514070e-03   6.58884583e-02   5.67308614e-01   1.07247700e+07
  1.25108051e-01   1.02388219e-01   6.61256075e-01   4.07865500e+06
  4.76456977e-02   5.02279522e-03   6.04892148e-01   7.30868800e+06
  4.19399238e-03   6.97702060e-02   5.73803419e-01   5.72348000e+06
 -3.21969230e-02   6.83720409e-02   5.53931179e-01   4.60040000e+05
 -1.30486990e-01  -2.86140380e-03   5.28473369e-01   1.58314300e+06
  3.35153394e-02   5.44138906e-04   5.90715975e-01   2.49782400e+06
 -1.94279560e-01  -6.32074644e-02   5.41142721e-01   1.25034890e+07
  4.80104024e-02   7.12813541e-02   6.03869215e-01   7.89257000e+05
  1.06932702e-01   1.16596988e-01   6.49353371e-01   8.40607600e+06
 -1.52668283e-01  -4.31525554e-02   5.24407098e-01   9.34492400e+06
  2.15628432e-02   7.03027765e-02   5.84523618e-01   1.45376810e+07
 -1.46031825e-01  -3.62575174e-02   5.25184239e-01   1.58540550e+07
  1.42758815e-01   1.14432669e-01   6.75031759e-01   1.61156860e+07
  1.56521677e-02   6.77675855e-02   5.80953174e-01   7.10539200e+06
 -1.65078085e-01  -5.58886399e-02   5.24000383e-01   7.23210000e+05
  1.23743319e-01   1.80285257e-01   6.39315421e-01   2.44045900e+06
  7.00114839e-02   7.13737725e-02   6.19736662e-01   8.54796000e+05
  8.41096208e-02   7.02169663e-02   6.30252888e-01   7.89257000e+05
  1.81648858e-01   1.35543979e-01   6.99607396e-01   8.41220400e+06
  6.67392889e-03   8.50985317e-02   5.78953034e-01   1.44718810e+07
  4.36723236e-02   9.29119118e-02   6.03582505e-01   7.22696000e+05
  1.19211475e-01   9.50836359e-02   6.56542772e-01   9.67336300e+06
  1.16972143e-01   1.80600409e-01   6.35486342e-01   3.42862500e+06
  2.02889551e-02   8.86867121e-02   5.87981274e-01   1.38129290e+07
 -1.61265137e-01   2.03498694e-02   5.42139852e-01   8.52738000e+05
  5.30992516e-02   1.02522293e-01   6.12086905e-01   7.02751100e+06
  1.62393141e-02   6.66244001e-02   5.81228830e-01   6.71037700e+06
  1.41422130e-01   1.31444440e-01   6.75361193e-01   7.28913500e+06
  1.64553735e-02   7.31112403e-02   5.82543111e-01   5.92137200e+06
 -1.34063432e-01   7.08373746e-02   5.38499724e-01   1.42050720e+07
  1.03369045e-02   5.74048276e-02   5.75194567e-01   1.90851000e+06
 -1.55374985e-01  -4.39345239e-02   5.24806602e-01   1.09242200e+07
 -2.20312503e-02   6.23629150e-02   5.55957372e-01   9.20075000e+05
 -1.21222830e-02   5.81604744e-02   5.60533192e-01   2.30069600e+06
  4.76515660e-02   7.31341609e-02   6.04096655e-01   2.10280400e+06
  8.55050507e-03   4.97963257e-02   5.72464116e-01   1.31431800e+06
  5.32771530e-02   1.11022263e-01   6.13023539e-01   1.03749760e+07
  6.61384097e-02   1.06888628e-01   6.20959930e-01   9.45567300e+06
  1.51554413e-02   6.32018143e-02   5.79734681e-01   5.98588200e+06
  6.94007526e-02   9.93858317e-02   6.22059883e-01   1.08561060e+07
 -2.54272512e-02   2.82822362e-02   5.41330021e-01   1.61177430e+07
  4.83859620e-02   1.02873273e-01   6.08934197e-01   4.07119600e+06
  6.37228430e-02   1.03320037e-01   6.18620691e-01   5.44975900e+06
 -1.31128914e-02  -1.86971317e-02   5.72919334e-01   7.88949200e+06
 -1.88179585e-01   6.20413491e-02   5.19340789e-01   9.66460300e+06
  5.05448305e-02   1.00047524e-01   6.09447949e-01   3.15035200e+06
  1.09346671e-02  -2.23930488e-02   5.91853570e-01   1.97224800e+06
 -1.27695418e-01   6.60274099e-02   5.37573786e-01   8.28296800e+06
  3.77258377e-02   1.15654161e-01   6.04856751e-01   1.28900020e+07
  8.58511424e-02   9.88561211e-02   6.33391539e-01   6.77925000e+06
  3.28299015e-02  -5.28756550e-03   5.90856476e-01   1.32876150e+07
  8.04871407e-02   1.42800324e-02   6.28407622e-01   2.95861800e+06
 -2.47675802e-02   4.59205910e-02   5.49821844e-01   7.88487000e+05
 -1.32232816e-01  -5.07781497e-04   5.29388898e-01   3.08917300e+06
  1.21658524e-01   1.84596500e-01   6.38916789e-01   1.24330680e+07
 -1.02656854e-01   8.58507363e-02   5.41823944e-01   1.53893700e+07
 -1.36759414e-01  -4.37355461e-02   5.20563312e-01   7.89003000e+05
 -1.36102008e-01  -2.73310307e-02   5.27248841e-01   1.11809340e+07
 -1.22432448e-02   5.66971781e-02   5.60104792e-01   2.16911000e+06
 -1.36529351e-01  -4.62290192e-02   5.19903570e-01   9.20073000e+05
 -8.89756066e-02  -2.34307197e-02   5.38465914e-01   1.05225010e+07
 -3.17962128e-02   4.38661308e-02   5.46246600e-01   7.88487000e+05
  6.87882533e-02   4.91440462e-02   6.18442689e-01   4.46928600e+06
 -1.14575824e-01   3.54755467e-02   5.42835194e-01   3.28454000e+05
 -9.75079175e-02  -2.50222301e-02   5.35296164e-01   5.78411600e+06
  4.05583721e-02   9.07479802e-02   6.00371895e-01   1.11745200e+06
 -1.47836861e-01   9.55936873e-02   4.94061080e-01   2.63196900e+06
 -1.53005796e-01  -3.84517807e-02   5.26768075e-01   1.61164620e+07
  1.01374367e-01   1.81748810e-01   6.25014287e-01   1.25636320e+07
 -9.49032860e-02  -2.24317971e-02   5.36350726e-01   7.36701100e+06
  4.06977513e-02   9.08964024e-02   6.00260736e-01   1.11745200e+06
  5.91958824e-02   6.32380235e-02   6.10402815e-01   1.51195000e+06
  4.51656016e-02   1.06527428e-01   6.07267391e-01   9.84915100e+06
 -8.01942485e-02  -2.88593464e-02   5.43888551e-01   1.77512200e+06
 -9.05253944e-03   4.41065053e-02   5.58933426e-01   3.74737000e+06
  5.34680948e-02   1.10024164e-01   6.13134936e-01   1.09694410e+07
 -1.60387937e-01  -5.75304997e-02   5.21390933e-01   4.66976500e+06
  5.93427751e-02   1.22413974e-01   6.19945905e-01   1.47925710e+07
  8.05859369e-02   7.96860989e-02   6.28780065e-01   6.31715500e+06
  1.01820414e-01   1.28510589e-01   6.47946853e-01   2.76280600e+06
 -1.40719754e-01  -4.16114350e-02   5.22233040e-01   4.59787000e+05
  9.91094578e-03   8.61807130e-02   5.80675856e-01   1.42094790e+07
  2.01235574e-02   1.44019344e-01   5.82865263e-01   1.34148040e+07
  2.09418283e-02   6.70200425e-02   5.83860830e-01   1.51968950e+07
 -1.12381290e-01  -2.70367740e-02   5.28857390e-01   2.56335500e+06
  1.06687576e-01   7.78951917e-02   6.47179629e-01   3.87817800e+06
  5.79295989e-02   3.87057017e-02   6.10073252e-01   4.27293800e+06
 -1.12340408e-01  -3.36297749e-02   5.27488841e-01   5.91626000e+05
 -1.38623490e-01  -3.59547625e-02   5.23473934e-01   4.27372400e+06
  4.11648180e-02   2.58425128e-02   5.97229801e-01   3.68003100e+06
 -1.54018301e-01  -4.13024561e-02   5.25783324e-01   4.02033900e+06
 -2.31224731e-02   6.28995360e-02   5.55005065e-01   7.88489000e+05
  6.78289780e-02   1.05201436e-01   6.21908353e-01   6.49884700e+06
  1.48491531e-01   1.24535498e-01   6.80451318e-01   9.97815800e+06
 -1.12777950e-01  -2.74245361e-02   5.29456200e-01   2.23567400e+06
  1.51003612e-01   1.20663959e-01   6.77437522e-01   8.92855200e+06
  4.65345836e-02  -1.93264044e-02   6.06479898e-01   9.73401700e+06
 -1.90979487e-01  -5.75197201e-02   5.39351905e-01   1.58530290e+07
 -6.45046560e-02   5.91228365e-02   5.47696094e-01   2.50039500e+06
  4.60215527e-02   1.90868576e-02   6.01625452e-01   1.24852700e+06
  4.13517320e-02  -1.33859926e-02   6.00233912e-01   5.13134500e+06
  6.58406059e-02   8.51646605e-02   6.17602361e-01   5.85557700e+06
 -1.26643730e-01  -6.29157621e-03   4.24403063e-01   1.41395940e+07
  4.68439213e-02   1.03154748e-01   6.07445230e-01   6.56695400e+06
  8.04862343e-02   8.13993966e-02   6.27663677e-01   6.25136200e+06
 -6.33204074e-02  -2.31333313e-02   5.48303226e-01   4.27733100e+06
  1.35582290e-01   9.94677210e-02   6.69807407e-01   6.11386200e+06
 -7.44679957e-02   5.51522830e-02   5.46437348e-01   4.47367300e+06
  3.39678414e-04  -3.17647352e-02   5.87020238e-01   1.02665370e+07
  1.57622148e-01   1.00957824e-01   6.86169086e-01   8.92933200e+06
 -1.34017530e-01  -4.11107932e-02   5.20954543e-01   7.23210000e+05
  1.13794450e-01   1.01775827e-01   6.54755524e-01   2.23464400e+06
 -3.07209606e-03   5.64005708e-02   5.65721189e-01   7.69907200e+06
 -1.48165161e-01  -5.16989302e-02   5.19881556e-01   4.99795600e+06
 -1.96146734e-01  -9.37433600e-02   6.38979620e-01   1.66348370e+07
 -1.32418969e-01  -2.86561698e-02   5.27191047e-01   2.30069600e+06
 -1.78435106e-01   1.23398297e-03   5.38788910e-01   9.85866000e+05
 -1.27756734e-01  -4.50562408e-02   5.21707343e-01   4.40555900e+06
  7.44624872e-02   8.87540652e-02   6.23670089e-01   1.24775500e+06
 -1.61003662e-01   1.59079856e-02   5.32501496e-01   1.67723340e+07
  1.72876618e-01   1.30970074e-01   6.94109832e-01   5.26853000e+05
  1.61458214e-02   6.65648653e-02   5.81296703e-01   6.71037700e+06
  6.02473407e-02   1.20742976e-02   6.14117239e-01   6.57417000e+05
 -2.67717409e-02   4.29145562e-02   5.48051501e-01   3.81702300e+06
 -1.87916681e-01  -6.78748997e-02   5.35749302e-01   5.91624000e+05
 -1.47709958e-01  -5.26257855e-02   5.19099143e-01   2.56541600e+06
  1.91894569e-01   1.00982916e-01   6.93304434e-01   1.64533800e+06
 -5.56663773e-02   2.04685079e-02   5.31645040e-01   9.23422000e+05
  5.39478368e-02   3.34607097e-02   6.06791411e-01   2.76123900e+06
 -7.87000400e-02   5.08994759e-02   5.44108819e-01   5.25317000e+05
 -1.36131456e-01  -4.53978170e-02   5.20128701e-01   9.85866000e+05
 -5.33685460e-02   1.48883079e-01   5.41369757e-01   8.02031400e+06
  5.90616682e-02   1.05756711e-01   6.16013380e-01   9.32408800e+06
 -1.47146275e-01  -4.11465766e-02   5.25203198e-01   1.46708080e+07
  1.89179281e-01   8.87282849e-02   6.91106807e-01   8.28425100e+06
 -1.55389097e-01  -3.88992981e-02   5.26881561e-01   1.57874910e+07
 -1.09597686e-01  -3.82276247e-02   5.27689955e-01   9.19560000e+05
 -1.16990465e-02   6.49147781e-02   5.62545657e-01   1.51195100e+06
  8.90432182e-02   6.25202712e-02   6.33776863e-01   4.79825300e+06
 -1.12786198e-01  -3.20213179e-02   5.27567052e-01   9.20075000e+05
 -1.16804836e-01  -3.95723688e-02   5.25546924e-01   2.49910300e+06
  1.12747960e-01   1.31911150e-01   6.55983134e-01   6.12207200e+06
 -1.29401203e-01   6.34876919e-02   5.34966067e-01   6.70086600e+06
 -1.28543770e-01   3.38934150e-03   5.31269054e-01   7.88227000e+05
  8.65748015e-02   8.60894544e-02   6.32142953e-01   2.30378400e+06
 -1.64112498e-01  -5.00492545e-02   5.26575190e-01   2.43228200e+06
 -1.40692557e-01  -4.22007061e-02   5.21936195e-01   5.91626000e+05
  2.50139584e-02   6.19388304e-02   5.84862425e-01   1.64379600e+06
  1.96460988e-01   1.15164914e-01   6.97443927e-01   6.11618000e+06
  4.19277781e-02   9.15378633e-02   6.01738615e-01   3.94245000e+05
  4.98632663e-02   1.26585921e-03   6.06675645e-01   2.36752100e+06
 -1.85350132e-01  -7.19469629e-02   5.33528752e-01   9.19814000e+05
 -1.10395864e-01  -3.72408126e-02   5.27658409e-01   8.54280000e+05
  6.58044085e-03   1.19896014e-02   5.65942942e-01   1.24986110e+07
 -1.21243975e-01  -2.68344408e-02   5.27797788e-01   1.71756600e+06
 -9.53996268e-02  -2.65692155e-02   5.35774062e-01   7.89003000e+05
 -1.94696833e-01  -7.48737548e-02   5.40172441e-01   4.53842800e+06
 -1.10435181e-01  -3.23807940e-02   5.28404405e-01   6.57417000e+05
  1.76488674e-02   6.73181519e-02   5.81960378e-01   9.01338200e+06
  3.36323764e-02   1.60201666e-02   5.91951649e-01   6.24491900e+06
  7.40854169e-02   6.66788226e-02   6.22290967e-01   6.57417000e+05
  7.90495378e-03   6.81341979e-02   5.60729097e-01   6.77745500e+06
 -1.18774235e-01   6.89125621e-02   5.37229761e-01   1.24178990e+07
 -1.25276299e-01  -2.90040338e-02   4.63427359e-01   4.60422900e+06
  7.08735659e-02   1.05622777e-01   6.24193313e-01   7.74762700e+06
  2.18986335e-02   1.43827381e-01   5.83595334e-01   1.60521880e+07
 -1.15158156e-01  -2.73058736e-02   5.28545627e-01   1.53274570e+07
  2.56716412e-02   6.33322011e-02   5.86344257e-01   1.90542500e+06
 -1.35667744e-01  -4.55531379e-02   5.20208266e-01   1.05165900e+06
  4.36716182e-02   1.55350983e-02   6.00593991e-01   2.75995900e+06
 -1.84616806e-01  -4.97852112e-02   5.37862633e-01   1.01935280e+07
  1.60768418e-01   1.28651932e-01   6.87850368e-01   9.25572500e+06
 -2.02660622e-01   6.60354465e-02   5.03113707e-01   1.40722090e+07
 -1.52716391e-01  -8.27790845e-02   5.28337417e-01   1.59882120e+07
 -9.34449561e-02  -2.61959253e-02   5.36671291e-01   9.19821000e+05
 -1.80452512e-01  -4.77938245e-02   5.36067423e-01   1.28910390e+07
 -1.20897295e-01  -2.36836464e-02   5.28983660e-01   1.58535410e+07
  3.67508058e-02   9.74941086e-02   6.00162428e-01   9.84837900e+06
 -1.83547804e-01  -7.01622143e-02   5.29847522e-01   1.11693900e+06
 -1.70105981e-01  -4.61583456e-02   5.30653714e-01   3.15574600e+06
 -1.41093414e-01  -4.27837154e-02   5.21306099e-01   9.85866000e+05
 -1.80247907e-02  -1.87576220e-02   5.69060610e-01   5.19868700e+06
 -1.53303112e-01  -4.06091732e-02   5.25839918e-01   4.54668300e+06
 -1.71197995e-01  -4.67603423e-02   5.31464060e-01   2.89257200e+06
 -1.05991115e-01  -2.41810173e-02   5.31584969e-01   2.43228200e+06
  5.46263535e-02   7.41090434e-02   6.09425610e-01   1.00676100e+07
  1.38511554e-02   5.04702536e-02   5.76513359e-01   9.20075000e+05
 -1.69221471e-01  -1.75779130e-02   5.32502038e-01   1.06535760e+07
 -8.98749833e-02   1.04231869e-01   5.40001578e-01   1.62451940e+07
  7.38310298e-02   8.81680483e-02   6.24077887e-01   9.19562000e+05
  1.99761641e-02   8.54982152e-04   5.79013058e-01   1.10527150e+07
  1.45294463e-01   1.11582993e-01   6.77389877e-01   1.57722700e+06
  4.92613274e-02   7.88844668e-02   6.04920135e-01   1.64328300e+06
  5.11854378e-03   4.81261506e-02   5.70317223e-01   1.84194500e+06
  1.12921150e-01   7.60163188e-02   6.51611770e-01   2.95682300e+06
 -3.55214905e-02  -2.14759427e-02   5.60609955e-01   4.60552200e+06
  3.52344318e-02  -1.66153170e-03   5.92838368e-01   1.58545730e+07
 -1.70136759e-03   4.48449287e-02   5.63723516e-01   3.28707100e+06
 -1.26416802e-01  -4.34200157e-02   5.21782604e-01   2.76253000e+06
  5.63111634e-02   1.14457600e-01   6.15550934e-01   1.03942570e+07
  4.32694794e-03   1.12255113e-02   5.64330535e-01   1.14482410e+07
  3.98237573e-02  -6.17268576e-03   6.00665159e-01   1.59216470e+07
 -2.14412367e-01  -1.21059871e-01   5.65921584e-01   1.84220400e+06
  9.46995107e-02   1.78177808e-01   6.20077519e-01   1.23680450e+07
 -9.65874543e-02  -2.07319686e-02   5.36939297e-01   1.22976240e+07
  5.68910261e-02   7.81521042e-02   6.09792335e-01   4.73915500e+06
 -1.85434133e-01  -6.57996775e-02   5.34085184e-01   7.88489000e+05
  8.19619407e-02   4.27765228e-02   6.28917299e-01   3.81264400e+06
 -9.57259366e-02  -2.67748403e-02   5.36150615e-01   5.26344000e+05
 -9.35997871e-02  -2.63660658e-02   5.36901901e-01   1.05166100e+06
  8.26428271e-02   4.96471816e-02   6.29185880e-01   4.73142900e+06
 -1.83679489e-01  -6.53946594e-02   5.33010165e-01   5.25833000e+05
  2.03410413e-02   9.63509623e-04   5.78733263e-01   9.73789100e+06
  8.84674395e-02   2.20890741e-02   6.33929856e-01   2.49832500e+06
 -2.48439795e-02   2.42712321e-02   5.41121268e-01   1.05890640e+07
 -8.05054007e-02  -2.05485814e-02   5.39680289e-01   1.04579890e+07
  4.31719278e-02   1.04310535e-01   6.05509379e-01   2.43048100e+06
  5.01756514e-02   6.09370635e-02   6.04078802e-01   4.60038000e+05
 -2.19583365e-01  -1.30932907e-01   5.74384018e-01   1.67769590e+07
  7.40228686e-02   8.34847508e-02   6.23484120e-01   2.36751700e+06
 -1.16235397e-01  -2.83985120e-02   5.27967690e-01   1.36199010e+07
 -2.02306303e-01   6.61429125e-02   5.03400804e-01   1.48625010e+07
  8.35304239e-03   7.50405851e-02   5.76635939e-01   1.43390160e+07
 -1.26623273e-01  -5.93085024e-03   5.28075717e-01   4.66744100e+06
 -1.11002167e-01  -1.99374080e-02   5.31245522e-01   1.38812840e+07
 -2.08329930e-01  -8.74681190e-02   5.40518221e-01   1.01295510e+07
 -1.22402260e-01   6.47380289e-02   5.34778751e-01   2.89335400e+06
 -1.40042467e-01  -3.58001574e-02   5.23895907e-01   3.28630100e+06
  1.47236469e-01   1.70209152e-01   6.76352850e-01   6.19759000e+06
 -3.53104615e-02   3.16587722e-02   5.39230008e-01   6.11462200e+06
 -1.96545179e-01  -1.15366827e-01   5.48413891e-01   1.55906290e+07
 -1.43916543e-01  -4.43768145e-02   5.21362363e-01   6.57930000e+05
 -1.69173768e-01  -5.78950580e-02   5.25892001e-01   6.56903000e+05
 -2.51153529e-02  -1.66460698e-02   5.64027973e-01   1.90825900e+06
  1.49092638e-01   1.02769809e-01   6.79001049e-01   1.05741570e+07
 -8.07586776e-02  -2.08390001e-02   5.40045694e-01   1.03901430e+07
  5.10387737e-02   1.51332774e-01   5.97655544e-01   4.54509500e+06
  3.67138407e-02  -1.97025243e-02   6.01406951e-01   8.55462800e+06
  3.40416076e-03   7.66339564e-02   5.74997881e-01   5.78979200e+06
 -1.60311816e-01  -7.33887187e-03   5.33449569e-01   1.05139900e+06
 -8.96153660e-02   1.04511330e-01   5.39706848e-01   1.49295850e+07
  3.59770481e-02   9.10209875e-02   5.98444342e-01   1.51195100e+06
 -9.47082165e-02  -2.68595429e-02   5.36053335e-01   5.91624000e+05
  1.79160818e-01   1.38571039e-01   6.98302259e-01   2.95988100e+06
  1.25652234e-01   9.03515008e-02   6.61343956e-01   1.22251480e+07
  1.29179034e-01   1.82321442e-01   6.43359036e-01   2.90048100e+06
 -1.59814870e-02   8.64903362e-02   5.66353991e-01   1.15548820e+07
 -1.68828189e-01  -1.69275888e-02   5.32594615e-01   1.11156680e+07
 -2.10987023e-01  -1.18336472e-01   5.58904898e-01   1.97404900e+06
 -1.56220592e-01  -1.22110081e-02   5.30070581e-01   1.05243000e+07
  2.58311734e-02   8.22362761e-02   5.89375735e-01   2.30146600e+06
  1.80700697e-01   1.34283458e-01   6.98689379e-01   3.80903600e+06
 -2.48153502e-02  -1.70808674e-02   5.63994435e-01   1.38243100e+06
 -1.11298486e-01  -3.86654376e-02   5.27112613e-01   1.05140000e+06
 -1.90774794e-01  -6.77615527e-02   4.92239429e-01   1.07216880e+07
  7.90638609e-02  -4.69136224e-02   6.22946676e-01   6.33059500e+06
  1.37440756e-01   1.30907681e-01   6.30294227e-01   8.79646500e+06
 -7.79442846e-02  -3.56054165e-02   5.40765145e-01   1.07193620e+07
 -7.27217513e-03  -2.05646229e-02   5.77681908e-01   7.69597600e+06
  1.32939955e-02   5.00111583e-02   5.76979335e-01   7.88487000e+05
  5.07422976e-02   6.11763197e-02   6.03732806e-01   1.24775500e+06
 -2.12526362e-01  -1.21215411e-01   5.54137280e-01   3.02415600e+06
  8.70396404e-02   9.69529786e-02   6.33644839e-01   5.00026800e+06
  3.68961036e-02   7.48518175e-02   5.96273773e-01   2.30043700e+06
 -1.51043835e-01  -1.00987804e-02   5.29600972e-01   1.07867050e+07
  4.30835552e-03   8.55082029e-02   5.77132206e-01   1.57224690e+07
 -1.68009635e-01  -4.40930716e-02   5.30986353e-01   3.08995300e+06
 -1.97130219e-01  -8.64328051e-02   5.46265513e-01   1.03266720e+07
  1.51243862e-01   1.07167441e-01   6.80214408e-01   3.68183600e+06
 -3.39083827e-02  -2.29273274e-02   5.62100768e-01   2.43511700e+06
  3.19933893e-02   9.94063147e-02   5.97128230e-01   9.06246000e+06
  4.81952647e-03   8.19969476e-02   5.76900258e-01   1.13796170e+07
 -2.08788311e-01  -1.18289570e-01   5.46306707e-01   3.08995100e+06
  1.08808078e-01   8.31995763e-02   6.48979209e-01   3.02416000e+06
 -1.98500796e-01  -1.16778220e-01   5.52125597e-01   1.56564220e+07
  5.01140453e-02   7.51068833e-02   6.05583429e-01   2.69544600e+06
 -3.46465017e-02  -8.33768017e-03   5.30222427e-01   1.77744800e+06
  1.61658032e-02   6.40080212e-03   5.74355721e-01   1.37491950e+07
 -2.07442012e-02   5.99796815e-02   5.55706503e-01   3.48419600e+06
 -1.38003196e-01  -2.85278387e-02   5.26222500e-01   1.32187180e+07
  7.99909481e-02   7.91986162e-02   6.27336281e-01   6.38089000e+06
 -1.19371664e-02  -4.09508393e-02   5.80073822e-01   8.29896700e+06
 -3.77874879e-02   4.25907660e-02   5.43552303e-01   1.31457200e+06
 -6.40196769e-02   4.56733320e-02   5.42843733e-01   6.11643900e+06
 -2.08818502e-02   4.54845421e-02   5.51625973e-01   3.55050200e+06
  1.12587695e-01   1.24511960e-01   6.54865323e-01   3.80982200e+06
  2.26036265e-02  -2.25688779e-02   5.91450987e-01   8.17099100e+06
  7.55214653e-02   1.14907788e-01   6.28157746e-01   7.22257200e+06
  7.12296859e-02   7.94368303e-02   6.21409757e-01   1.70856000e+06
  1.34428872e-01   1.07080535e-01   6.69063710e-01   7.17452100e+06
  6.08199095e-02   1.04785618e-01   6.17209595e-01   8.20766800e+06
 -9.96853046e-02  -2.26075485e-02   5.34612483e-01   1.01256660e+07
  5.87415352e-02   6.28811590e-02   6.11440563e-01   9.85864000e+05
 -9.54406617e-02  -2.85619556e-02   5.36181679e-01   7.23210000e+05
  7.29771660e-03   1.02265416e-02   5.66849092e-01   5.00026600e+06
 -1.29024920e-01  -5.08662058e-02   5.18512808e-01   9.47136900e+06
  3.19149122e-02  -8.88458404e-03   5.91362589e-01   1.01300530e+07
 -5.73973254e-02   4.43523512e-03   5.47078351e-01   9.86328300e+06
  4.09059157e-02   3.29908925e-02   5.96615432e-01   6.04702900e+06
  1.16146903e-01   1.18841351e-01   6.56206302e-01   1.00439500e+07
 -1.82299410e-01  -4.76819300e-02   5.36279291e-01   1.24307520e+07
  1.45901773e-01   1.41438280e-01   6.78628374e-01   1.53225490e+07
 -1.86333013e-01  -7.34112695e-02   5.33443461e-01   9.84837000e+05
  3.15391051e-02   9.82984561e-02   5.96581289e-01   1.12942810e+07
 -1.96303937e-01  -7.04863057e-02   5.41107662e-01   3.49683400e+06
  3.74104146e-02  -2.22463904e-02   6.02811666e-01   8.03914600e+06
 -1.40858609e-01  -5.50244777e-02   5.14394164e-01   1.00640110e+07
 -1.16787627e-01  -2.63154423e-02   5.28097898e-01   1.11120950e+07
  7.26719036e-02   5.07487668e-02   6.21122998e-01   4.40221400e+06
  1.56745586e-02   9.71240308e-02   5.85083971e-01   1.26754190e+07
 -1.26520250e-01  -6.75630559e-02   5.30237211e-01   1.15736490e+07
  8.97127192e-02   5.39154641e-02   6.34450379e-01   3.28706000e+05
 -9.76230411e-02  -2.64518265e-02   5.34809079e-01   8.54798000e+05
  5.73212076e-02   1.04143833e-01   6.14018584e-01   8.46826600e+06
 -1.66134898e-01   1.41590007e-02   5.41584217e-01   7.42715000e+06
  7.01761024e-02   4.79656983e-02   6.19428861e-01   5.24802000e+05
  1.92602634e-02   2.30137169e-03   5.78321415e-01   6.64458200e+06
  1.68974412e-01   1.07344014e-01   6.81487412e-01   9.78207200e+06
 -1.39198778e-01  -4.75236914e-02   5.19911128e-01   4.27397400e+06
  7.03778002e-02   8.38223362e-02   6.19916425e-01   3.81239500e+06
 -2.16232862e-01  -1.24122711e-01   5.61909090e-01   1.44718500e+06
 -1.69842524e-02  -1.81292075e-02   5.69495618e-01   3.42073500e+06
 -2.10241480e-02   4.53857973e-02   5.51752284e-01   3.55050200e+06
  1.22793177e-02  -2.52076794e-02   5.92835032e-01   8.30283100e+06
 -4.91354150e-02  -2.87032526e-02   5.55101297e-01   2.30146700e+06
 -1.82725127e-01  -2.23903091e-02   5.34310174e-01   1.06551160e+07
  1.52896097e-01   1.08098725e-01   6.82200108e-01   5.45207900e+06
 -1.00394965e-01  -4.22920257e-02   5.31640137e-01   1.07198740e+07
  8.64875820e-02   9.66776038e-02   6.33928949e-01   5.98742200e+06
 -1.77248173e-01   4.00134951e-03   5.43480622e-01   3.93731000e+05
 -1.29326121e-01  -8.40192547e-03   5.27447264e-01   1.01269730e+07
 -7.01088690e-03   4.50561496e-02   5.60279380e-01   2.23515700e+06
 -4.59682615e-03  -2.02975005e-02   5.79940444e-01   1.13790910e+07
  7.37989399e-02   8.54687452e-02   6.23184220e-01   3.94245000e+05
 -1.00134452e-01  -4.07655277e-02   5.32589393e-01   1.38167920e+07
 -1.30203148e-02   5.02321273e-02   5.58326878e-01   2.36597700e+06
  7.31763447e-02   8.75907742e-02   6.24493550e-01   7.88235000e+05
 -1.13148844e-01  -1.80855712e-02   5.30880736e-01   7.23156300e+06
  8.23311017e-02   7.90259625e-02   6.29245322e-01   5.98330500e+06
  4.49881146e-02   7.68456129e-02   6.02069685e-01   3.54896000e+06
 -1.30742407e-01  -5.14862689e-02   5.17634444e-01   9.60320700e+06
  1.05806279e-02   2.82965624e-02   5.72310110e-01   3.02415800e+06
 -1.42963155e-01  -5.64280211e-02   5.17203813e-01   1.10501400e+07
  6.72168467e-02   1.10534312e-01   6.22044996e-01   7.87870000e+06
  9.00397554e-02   5.33752435e-02   6.34409554e-01   5.91878000e+05
  2.61272373e-02  -2.08364512e-02   5.95803068e-01   8.74737300e+06
 -1.34395068e-01  -4.81462989e-02   5.18424931e-01   5.24804000e+05
 -7.25838227e-02   5.44516286e-02   5.46287239e-01   1.64482700e+06
 -1.55668846e-01  -1.16680494e-02   5.29199917e-01   1.03269190e+07
  3.48372515e-02  -1.37593512e-03   5.92324308e-01   1.46697810e+07
 -1.46234428e-01  -8.05372863e-03   5.28982927e-01   1.01940550e+07
  9.88366046e-02   3.20892389e-02   6.41188870e-01   2.49832500e+06
 -3.67451433e-02   3.32775398e-02   5.39379504e-01   5.90080000e+05
 -1.55810055e-01  -3.97070877e-02   5.27054301e-01   1.49992620e+07
  5.85992920e-02   4.95445919e-02   6.09988304e-01   4.86404400e+06
 -1.61207953e-01  -6.60689171e-02   5.15266149e-01   1.36859830e+07
  1.24695517e-02  -2.10880820e-02   5.92015962e-01   1.02619010e+07
  6.89720996e-02   1.09192048e-01   6.23181596e-01   3.41455500e+06
 -2.03181918e-01  -6.15608817e-02   5.43064498e-01   1.67114220e+07
 -7.25865993e-02  -1.90756912e-02   5.45057416e-01   1.09815040e+07
 -9.98286882e-02  -2.44610601e-02   5.33978730e-01   4.47031700e+06
 -3.41816786e-02   3.40129187e-02   5.40758738e-01   1.90567700e+06
 -1.35331949e-01  -2.59223803e-02   5.27259495e-01   1.05885450e+07
 -2.11071573e-01  -1.17894767e-01   5.63134576e-01   1.65762350e+07
 -1.21096403e-01  -3.42792213e-02   5.25457892e-01   3.42227300e+06
  1.33701163e-02   6.09146006e-02   5.77863783e-01   1.04587690e+07
 -1.88010988e-01   5.69907690e-03   5.42738975e-01   8.54021000e+05
  2.21362916e-02   9.24111417e-02   5.89791771e-01   1.07674220e+07
 -1.39183937e-01  -4.78741042e-02   5.19339155e-01   3.48548700e+06
  4.17092833e-02  -3.78784523e-03   6.00138698e-01   1.24929100e+06
 -4.03782451e-02   2.90563542e-02   5.35685682e-01   6.24568900e+06
 -4.09635629e-02   2.42822510e-02   5.35666981e-01   2.69597100e+06
  2.70459081e-02   5.97517924e-02   5.87252260e-01   4.14058000e+06
  1.22381322e-01   9.09178117e-02   6.59165004e-01   4.27551600e+06
 -7.20452645e-02  -2.25711548e-02   5.45568839e-01   1.97431700e+06
 -1.26242522e-03   6.21335320e-02   5.67906361e-01   8.42279500e+06
 -1.21455034e-01  -2.17271694e-02   5.27984314e-01   1.15756940e+07
 -5.09453860e-03   1.89915053e-02   5.55692396e-01   1.03922120e+07
 -1.55443805e-01  -3.89315033e-02   5.26946870e-01   1.57874910e+07
  2.90843942e-03   7.24263614e-02   5.73678690e-01   5.72373900e+06
  5.85592667e-02   2.99447968e-02   6.11018508e-01   4.59524000e+05
 -1.26661006e-01  -4.70288599e-02   5.17980572e-01   2.62144000e+05
  7.02665715e-02   6.74894102e-02   6.19898974e-01   3.15471700e+06
 -9.73375915e-02  -2.63072738e-02   5.34505141e-01   9.19821000e+05
 -1.20081255e-01  -4.46250738e-02   5.20437207e-01   3.94654900e+06
  1.13078865e-01   6.81306168e-02   6.52360732e-01   2.89257200e+06
 -1.58622805e-01  -6.38310878e-02   5.18236749e-01   1.12475190e+07
  1.45769826e-01   1.88004326e-01   6.55018124e-01   7.69982200e+06
  3.96400730e-02   6.43305884e-02   5.96952562e-01   3.08944000e+06
 -1.99549628e-01  -2.50920742e-02   5.27031450e-01   1.44094470e+07
 -5.00529864e-02  -2.28046104e-02   5.53577919e-01   4.80264800e+06
  8.28878853e-02   9.30867619e-02   6.31269230e-01   6.31561500e+06
 -1.74811673e-01  -1.97481635e-02   5.33485867e-01   1.05890640e+07
 -2.10159853e-01  -1.25832819e-01   5.63293540e-01   1.05870080e+07
  3.80517774e-02  -2.20760581e-02   6.02326010e-01   8.03940500e+06
 -4.05712266e-02   2.45350872e-02   5.35288504e-01   1.77563500e+06
 -1.35226777e-01   3.93536887e-03   5.35566020e-01   2.89308300e+06
 -3.80735087e-02   7.35237716e-02   5.56255292e-01   1.57543400e+06
  6.94516795e-02   4.32171989e-02   6.19033736e-01   5.92139000e+05
 -1.68813015e-01  -1.69370126e-02   5.32612186e-01   1.11156680e+07
 -2.97267917e-02   3.52795998e-02   5.40783674e-01   1.05139900e+06
  9.14597413e-02   9.68332443e-02   6.37151795e-01   5.59061300e+06
 -1.61279255e-01  -6.74175146e-02   5.15927775e-01   1.13754940e+07
  1.36455337e-01   1.37564221e-01   6.73671065e-01   5.72732200e+06
  5.27548336e-02   1.05292611e-01   6.11516936e-01   2.56104600e+06
 -1.91391944e-01   6.20933997e-02   5.16328753e-01   1.53215060e+07
 -1.91020453e-01   7.57365653e-03   5.40773905e-01   7.89516000e+05
 -1.39840593e-01  -4.48412496e-02   5.20536486e-01   5.91626000e+05
 -1.07924739e-01  -1.94887376e-02   5.32550537e-01   9.27320200e+06
  3.31883252e-02   9.69721565e-02   5.97942963e-01   1.11637220e+07
 -9.39844860e-02  -3.78500657e-02   5.36496750e-01   9.66900200e+06
 -3.31094405e-02   2.64188114e-02   5.36867794e-01   5.65587800e+06
 -1.87684231e-01   6.56048071e-03   5.42951739e-01   7.22181000e+05
 -5.35866089e-02  -2.83822352e-02   5.52698907e-01   2.23618400e+06
 -1.80662477e-01  -4.73198419e-02   5.36391490e-01   1.21678270e+07
  8.27242691e-02   9.85724587e-02   6.13993845e-01   6.05502500e+06
  4.62820715e-02   9.25976359e-02   6.05317539e-01   2.23439000e+06
 -7.18780703e-02  -2.85118884e-02   5.47755981e-01   7.43203000e+06
 -1.24180157e-01  -3.74474239e-02   5.26129166e-01   4.27680700e+06
 -1.01219847e-01  -2.12121062e-02   5.34277525e-01   8.54921600e+06
 -1.44828851e-01  -7.55073927e-03   5.28936760e-01   1.05230220e+07
  7.51596086e-02   5.06301441e-02   6.22654106e-01   3.28707100e+06
  1.88131339e-01   9.05988467e-02   6.90345820e-01   5.71961400e+06
  6.32877993e-03   1.38839700e-01   5.73615121e-01   1.66409790e+07
  2.16647443e-02   9.21169130e-02   5.90100344e-01   1.10961260e+07
 -5.76515332e-02  -2.11343615e-02   5.51444927e-01   9.21361000e+05
  7.42882097e-02   5.04312016e-02   6.22132166e-01   2.69519500e+06
 -1.19101387e-01   2.72150622e-03   2.46537410e-01   1.15759610e+07
  3.78111612e-02  -1.93548356e-02   6.00579427e-01   9.73607600e+06
 -1.86235268e-01  -8.17222537e-02   5.42833535e-01   1.05255910e+07
 -1.49659345e-01  -6.01824572e-02   5.15238626e-01   1.09190690e+07
  1.18116272e-01   1.71230932e-01   6.34798879e-01   4.54760800e+06
 -8.51027229e-02  -3.05741716e-02   5.42138493e-01   6.56901000e+05
 -1.28974593e-01  -5.02800470e-02   5.18298462e-01   8.94501500e+06
 -1.26389730e-01  -6.69699393e-02   5.31081793e-01   1.02600970e+07
 -1.45946441e-01  -7.46006733e-03   5.29346228e-01   1.09846000e+07
  1.79987493e-01   1.43665113e-01   6.99673933e-01   1.31328000e+05
 -1.29378715e-01  -6.69973438e-02   5.27070005e-01   1.10488390e+07
 -9.97564552e-02  -4.38227773e-02   5.32834330e-01   1.13102180e+07
 -3.74187608e-02  -4.10780140e-02   5.73392928e-01   9.33977700e+06
 -1.19427821e-01   8.01723395e-02   5.42125631e-01   1.44703220e+07
  1.95893869e-02  -1.66743054e-02   6.10770905e-01   1.46011490e+07
  1.55434492e-02   2.01479503e-02   5.63143997e-01   1.05165900e+06
 -1.54199375e-02   8.13055239e-02   5.64804008e-01   1.67769560e+07
  4.13442957e-02  -1.61311872e-02   6.01602425e-01   4.21049300e+06
 -1.85145186e-02   8.49740532e-02   5.64825624e-01   1.34788170e+07
 -5.53968533e-03   4.29215712e-02   5.61105046e-01   5.25880200e+06
 -2.05386731e-02   5.48418065e-02   5.55140338e-01   3.02287700e+06
 -2.42574562e-02   4.17062078e-02   5.48882321e-01   1.11719300e+06
 -1.21803057e-01  -8.99998747e-03   5.29827384e-01   1.24279210e+07
  1.10026897e-01   1.00850089e-01   6.50836008e-01   1.64225600e+06
  4.03712424e-02   1.03945064e-01   6.03551639e-01   6.43357200e+06
 -1.81306044e-01  -7.65498355e-02   5.25776160e-01   1.15163570e+07
 -1.35331998e-01   3.67142205e-03   5.35923096e-01   2.89257200e+06
 -1.48767703e-01  -6.20465554e-02   5.16479883e-01   1.05207020e+07
 -7.51886886e-02  -1.79747464e-02   5.40376387e-01   8.15472100e+06
  2.61375042e-02   2.56761542e-02   5.85033422e-01   1.05165900e+06
 -9.84020874e-02  -2.45773779e-02   5.35041538e-01   1.57671000e+06
 -6.85436050e-02  -2.05258053e-02   5.43549427e-01   1.58007100e+06
 -5.38574154e-02  -2.18591544e-02   5.52490766e-01   3.75021300e+06
 -2.00432635e-01  -1.01438987e-01   6.01158582e-01   1.09853720e+07
 -1.85712310e-01  -7.45939854e-02   5.32770717e-01   1.24800800e+06
 -3.88141031e-02  -2.02008673e-02   5.59124658e-01   4.27733100e+06
 -9.76299937e-03   7.19397117e-02   5.65587399e-01   2.49807500e+06
  3.74112640e-02   1.03034808e-01   6.01614231e-01   9.12773000e+06
 -1.11919426e-01  -3.12706875e-02   5.28039277e-01   6.57419000e+05
  1.04748926e-01   8.10207386e-02   6.46036538e-01   1.70933000e+06
 -1.99952852e-02   4.39591327e-02   5.52125864e-01   4.01054000e+06
 -1.83303961e-02   6.09208411e-02   5.48616256e-01   1.05166100e+06
 -1.56276236e-01  -6.41664454e-02   5.16184126e-01   1.05302400e+07
 -1.68521309e-01  -6.91169539e-02   5.20639460e-01   1.02611360e+07
  6.67041856e-02  -6.05200193e-02   6.18354263e-01   5.80579500e+06
 -5.44419627e-02  -2.87435850e-02   5.51781418e-01   2.10408800e+06
  9.19593054e-02   2.86343414e-02   6.36856755e-01   3.02466900e+06
 -1.24738899e-01   2.02587567e-03   5.30799328e-01   4.66898300e+06
  7.46357729e-02   5.02864583e-02   6.22976862e-01   3.28707100e+06
 -6.61299644e-02   4.24687217e-02   5.40470531e-01   1.57851900e+06
 -1.51370025e-01  -9.67779092e-03   5.29868875e-01   1.10498770e+07
 -2.06799197e-01  -1.23773069e-01   5.60087898e-01   1.22328580e+07
 -1.68612051e-01  -4.22794565e-02   5.31632691e-01   1.17075450e+07
 -2.28356557e-02  -2.75050091e-02   5.67509787e-01   1.84014500e+06
  8.19523978e-02   5.54917857e-02   6.28593963e-01   7.22183000e+05
 -1.00277739e-01  -2.42337545e-02   5.34020085e-01   3.74762100e+06
 -6.60221878e-03  -2.99238593e-02   5.81496423e-01   4.93241700e+06
 -1.13757868e-01  -4.25944222e-02   5.26260248e-01   3.27936000e+05
  5.80594953e-02   7.29178429e-02   6.11413157e-01   5.39245400e+06
  1.15493445e-01   7.52305391e-02   6.53925347e-01   4.92983500e+06
 -1.27678561e-01  -5.25577850e-02   5.17069855e-01   1.07224420e+07
  1.46789691e-01   1.85293975e-01   6.56114385e-01   3.68897200e+06
 -1.68753582e-01  -6.79514223e-02   5.18342839e-01   1.13796180e+07
 -2.07552800e-01  -1.25277462e-01   5.61798001e-01   9.73169700e+06
  1.55936951e-01   1.10500184e-01   6.80920866e-01   8.46775200e+06
 -2.01492959e-01  -2.21029712e-02   5.18607396e-01   1.13140760e+07
 -6.32692924e-02   1.94591837e-02   5.26544005e-01   5.72218600e+06
  2.92763018e-02   6.60336297e-02   5.89604777e-01   1.51220800e+06
 -1.04983394e-01  -1.86332925e-02   5.32662073e-01   1.33513310e+07
  6.15089975e-02   1.03697163e-01   6.17358535e-01   9.58623000e+06
  1.06728497e-01   9.24406874e-02   6.47794132e-01   1.57774400e+06
 -8.09169845e-02  -3.23418205e-02   5.42560727e-01   1.05243080e+07
 -1.92111833e-01  -1.04886633e-01   5.43696386e-01   1.26268420e+07
  4.34706391e-02   7.26003138e-02   6.00958372e-01   1.11745000e+06
 -2.37862512e-02   4.73590272e-02   5.50626524e-01   1.11745200e+06
  2.99859678e-02   6.91250992e-02   5.90426256e-01   2.89206100e+06
 -1.39626363e-01  -5.48766356e-02   5.18344768e-01   9.01132300e+06
 -1.90967136e-02   6.81741103e-02   5.59080157e-01   3.48316900e+06
  1.25249206e-01   7.56197810e-02   6.59895944e-01   6.57417000e+05
 -9.48688783e-02   1.64364068e-02   5.29614084e-01   1.64199200e+06
 -1.22116933e-01  -2.83706841e-02   5.27063369e-01   3.62299400e+06
  6.73281309e-02   1.11827028e-01   6.22482883e-01   8.34080100e+06
 -5.45797420e-02  -2.87890314e-02   5.51908861e-01   2.10408500e+06
 -2.00645254e-01  -1.09024170e-01   5.51029000e-01   1.13770380e+07
 -1.61180230e-01  -6.31181295e-02   5.20334535e-01   2.62913000e+05
  7.08158036e-02   5.62564389e-02   6.19073436e-01   9.20075000e+05
 -6.60857187e-02   1.75204130e-02   5.29498663e-01   4.80262700e+06
 -2.66658132e-02  -3.56989925e-02   5.65966110e-01   1.05217330e+07
  1.32502431e-01   9.36170137e-02   6.66753613e-01   5.26189800e+06
 -1.48714891e-01  -5.61022781e-02   5.18529014e-01   1.05063000e+06
 -5.23222977e-02   2.00698688e-02   5.35005553e-01   1.01279970e+07
  1.54207855e-01   1.15848767e-01   6.83576396e-01   1.04399990e+07
  9.28782337e-02   8.06540897e-02   6.37259151e-01   3.28452000e+05
  2.89463363e-02   7.26795291e-02   5.90302738e-01   1.38011100e+06
 -1.26774325e-01  -4.93344335e-02   5.18778596e-01   9.01131900e+06
 -7.73417252e-03   1.30680075e-01   5.71153566e-01   1.53942110e+07
 -3.63729791e-02  -1.84283086e-02   5.59280214e-01   1.05243700e+06
 -1.60701365e-01  -6.65774059e-02   5.18537167e-01   1.24366860e+07
  9.58574143e-02   1.79007039e-01   6.19490643e-01   1.27648710e+07
 -3.51619618e-02   2.81924954e-02   5.37658519e-01   7.49576200e+06
 -1.41388381e-02   4.27048599e-02   5.55762203e-01   1.57774300e+06
 -1.36904913e-02  -1.60741070e-02   5.72206212e-01   8.02597000e+06
  9.53148604e-02   1.01993230e-01   6.40153053e-01   1.90670800e+06
  1.13081101e-01   1.18803337e-01   6.54724855e-01   5.44951000e+06
 -1.65570103e-01  -3.99897571e-02   5.30714675e-01   1.05237840e+07
  1.03228010e-01   7.96364244e-02   6.46875920e-01   2.69519300e+06
  1.07748756e-01   1.03894523e-01   6.49094858e-01   2.10331800e+06
 -1.92271536e-01  -8.24240926e-02   5.34037170e-01   1.30948820e+07
 -4.14388880e-02  -2.66765637e-02   5.57414141e-01   2.56463800e+06
 -1.69461108e-01  -1.24299100e-02   5.35879222e-01   4.53635900e+06
  8.31408308e-02   9.51605012e-02   6.30742508e-01   6.51376600e+06
 -1.63798867e-01  -1.53017446e-02   5.31506471e-01   1.07209090e+07
 -1.67371170e-01  -1.63536618e-02   5.25268677e-01   1.35484600e+07
  9.11300072e-02   4.92092422e-02   6.35338196e-01   5.25831000e+05
  5.49025253e-02   2.70774680e-02   6.08229190e-01   1.31482900e+06
  1.22874980e-02  -2.67862415e-02   5.93224503e-01   8.03940500e+06
  1.01180175e-01   7.97821044e-02   6.43167549e-01   1.38062400e+06
 -8.20179856e-03   1.36460671e-01   5.71071490e-01   1.48655930e+07
 -8.92397958e-02  -3.88325938e-02   5.37695503e-01   1.13775490e+07
 -1.54366080e-02   9.46281867e-03   5.54067074e-01   1.17106280e+07
  1.04745578e-03  -2.80198895e-02   5.87021673e-01   6.50809100e+06
 -1.69782280e-01  -6.82631037e-03   5.36322170e-01   4.99768600e+06
  4.86817143e-02   3.90955084e-04   6.06101332e-01   1.64276600e+06
  4.04900669e-02   1.00421722e-01   6.03162534e-01   6.82730500e+06
  9.92933182e-02   1.04103477e-01   6.43355357e-01   1.38114000e+06
 -1.46962183e-01  -4.93636191e-02   5.20060793e-01   5.32846900e+06
  6.04801870e-02   3.35148722e-02   6.12343078e-01   5.91110000e+05
  7.88167096e-02   6.55917324e-02   6.26070607e-01   2.10306400e+06
 -1.60120535e-01  -1.67393781e-06   4.95562730e-01   1.42760540e+07
 -1.43101284e-01  -4.26441372e-02   5.22009799e-01   2.89129400e+06
 -1.91088228e-01   7.46183252e-03   5.40953433e-01   7.89516000e+05
 -1.69138546e-01  -1.12596290e-02   5.35861764e-01   4.60241000e+06
 -7.48276574e-02   4.05595268e-02   5.40220113e-01   5.19533700e+06
 -1.46398789e-01  -4.05019331e-02   5.24027099e-01   1.58538010e+07
 -1.01412079e-01   1.30394914e-02   5.27360892e-01   1.51092100e+06
 -2.45402987e-02  -3.70154530e-02   5.67028057e-01   7.23439700e+06
 -1.89406047e-01  -1.09454707e-01   5.42316878e-01   6.06819500e+06
 -1.00418274e-01  -2.57807335e-02   5.33486024e-01   1.11745200e+06
 -1.09247884e-01  -2.18938070e-02   5.31146401e-01   4.40375400e+06
  7.68189688e-02   3.76411052e-02   6.25331171e-01   8.53767000e+05
 -1.04675201e-01  -2.41936733e-02   5.34433908e-01   3.41763500e+06
 -1.08666722e-01  -2.86305762e-02   5.29841638e-01   4.00951300e+06
 -2.10920758e-01  -1.18105127e-01   5.62065495e-01   6.18430100e+06
  6.55809434e-02   4.65497847e-02   6.15521626e-01   6.57669000e+05
 -1.45506073e-01   9.18972314e-03   5.42702078e-01   3.93477000e+05
  1.10504310e-01   7.64569308e-02   6.50358183e-01   4.53482000e+06
  1.63878464e-01   1.12138764e-01   6.89392713e-01   8.86225800e+06
 -3.72600164e-02   7.45455240e-02   5.57671845e-01   1.51015700e+06
  3.02504124e-03   5.31784343e-02   7.78820321e-01   9.07840500e+06
 -4.19562053e-02   7.11863946e-02   5.54346760e-01   5.65667000e+06
 -1.45753715e-01   8.86995822e-03   5.43153398e-01   2.62661000e+05
 -6.69421874e-02   4.68018609e-02   5.44083267e-01   1.44693300e+06
-0.12837789 -0.04833985  0.52049444  0.        
 -1.78441325e-01  -4.60924298e-02   5.35111533e-01   1.05227530e+07
 -3.97097448e-02  -2.72573980e-02   5.59300519e-01   2.36725900e+06
  1.63259683e-01   1.11594701e-01   6.89639586e-01   8.14084700e+06
 -1.15406313e-01  -4.62363655e-02   5.22711305e-01   1.42778590e+07
  9.21290747e-02   8.44734177e-02   6.36992996e-01   2.56515100e+06
  7.91485436e-02   4.02080917e-02   6.26840066e-01   6.56901000e+05
 -6.66406312e-02   5.64463716e-02   5.47406931e-01   2.76279700e+06
 -1.08722210e-01  -4.18517392e-02   5.26354300e-01   3.81495400e+06
  9.63529182e-02   5.48014668e-02   6.39532937e-01   2.62811900e+06
  6.91556257e-02   3.56218736e-02   6.19033571e-01   1.05165900e+06
 -2.03895710e-01  -5.28160126e-02   4.95112291e-01   3.68648500e+06
 -4.09441632e-03  -3.79441757e-02   5.83648058e-01   6.99570600e+06
 -6.33231603e-02   5.76610388e-02   5.47594657e-01   4.93268400e+06
  9.55609555e-02   5.21717096e-02   6.38266496e-01   1.97121800e+06
 -1.69779442e-01  -7.13763822e-02   5.22433574e-01   8.62095800e+06
 -1.74456180e-01  -4.44499437e-02   5.34138140e-01   1.17720500e+07
 -4.85755387e-02  -3.10737662e-02   5.58269647e-01   2.82677900e+06
 -1.52925632e-01  -6.38221756e-02   5.15836880e-01   1.22323470e+07
 -2.04968086e-01  -1.93007911e-02   5.03466929e-01   1.32269750e+07
 -3.16387367e-02   5.60683465e-02   5.57630016e-01   8.54282000e+05
 -1.98641403e-01  -8.80536436e-02   5.46525223e-01   1.50666070e+07
  1.59661634e-01   1.10147303e-01   6.87309186e-01   7.02622400e+06
  2.75355567e-02   5.39069960e-02   5.87134329e-01   5.91624000e+05
 -1.45805952e-01  -7.28604307e-03   5.29079268e-01   1.12477720e+07
  7.20548793e-02   1.08698379e-01   6.25048720e-01   9.12568100e+06
 -1.40025809e-01  -5.80857642e-02   5.16393301e-01   9.07478600e+06
  9.91185755e-02   7.70413251e-02   6.41434982e-01   1.18273200e+06
  5.05472752e-02   2.80973769e-02   6.04916824e-01   2.62837300e+06
  1.43219922e-01   1.28700695e-01   6.76067141e-01   9.12387800e+06
 -3.18436239e-02   5.58436921e-02   5.57857195e-01   7.88489000e+05
 -1.15730217e-01  -3.66176227e-02   5.26231577e-01   5.13109400e+06
  7.28642667e-02   3.82174278e-02   6.22565490e-01   3.68002900e+06
 -1.40746015e-01  -5.90623788e-02   5.12164512e-01   1.19033820e+07
 -1.92723596e-02   6.79807869e-02   5.59267652e-01   3.54896200e+06
 -2.02208834e-01  -1.22029264e-01   5.56549957e-01   9.99692700e+06
 -1.54280853e-01  -5.64115660e-02   5.19812057e-01   4.27448600e+06
  1.27197569e-03   1.43249371e-02   5.63134665e-01   1.10511660e+07
 -1.47195433e-01  -8.63023169e-03   5.29031417e-01   1.03266680e+07
  5.60420671e-02   7.00316088e-02   6.09420893e-01   4.27551800e+06
  1.66526903e-01   1.44440366e-01   6.91610371e-01   6.57930000e+04
 -3.24106195e-02   7.38358477e-02   5.57549691e-01   5.91855100e+06
 -7.48813041e-02   4.04908321e-02   5.40298678e-01   5.32692300e+06
 -1.16003304e-01  -4.51522451e-02   5.24276132e-01   5.85351000e+06
  8.82913325e-03  -2.57191189e-02   5.91650861e-01   7.97489500e+06
 -8.97243278e-02   1.15125506e-02   5.25913112e-01   1.11900700e+06
 -3.44676687e-03   1.36300258e-01   5.72161898e-01   1.11729640e+07
 -1.69414342e-01  -6.35374088e-03   5.35577008e-01   5.32767700e+06
 -2.28996036e-02   4.89015684e-02   5.51542600e-01   2.69545400e+06
 -8.26396508e-02   1.38701941e-02   5.26622176e-01   1.07898010e+07
 -6.70469500e-02   5.38454243e-02   5.47371059e-01   1.44693500e+06
 -1.63128813e-01  -1.46000363e-02   5.30369763e-01   1.09182880e+07
  8.52262257e-02   9.52059356e-02   6.31671671e-01   5.65922500e+06
  5.99495837e-02   4.90714269e-02   6.11731452e-01   2.29915400e+06
 -1.86582093e-01  -6.02251233e-02   5.37226154e-01   2.95785200e+06
 -1.85478263e-01  -8.10675378e-02   5.29062219e-01   1.00629800e+07
  1.96151259e-01   1.18005293e-01   6.97490567e-01   1.38191200e+06
 -4.89547900e-02   2.37989224e-02   5.30620268e-01   2.83271000e+06
  2.93858310e-02   4.12081111e-02   5.87720947e-01   2.43176900e+06
 -1.49336739e-01  -6.27985082e-02   5.14277572e-01   1.04554220e+07
  1.40579623e-01   1.81994613e-01   6.50288384e-01   2.63937000e+06
 -1.52344772e-01  -6.22796097e-02   5.15366407e-01   1.58563740e+07
  6.53401026e-02   2.25652121e-02   6.16660559e-01   3.35106700e+06
  3.29353657e-02  -2.36621542e-02   6.00405671e-01   7.84254000e+06
 -7.12258516e-02   1.19964938e-01   5.41030374e-01   1.61819720e+07
  6.00819386e-02   9.29981407e-03   6.14320190e-01   7.89003000e+05
 -4.26717015e-02  -2.58025895e-02   5.55963092e-01   3.74839600e+06
  7.32939847e-02   5.46879778e-02   6.21813923e-01   3.81264500e+06
 -1.81480986e-01  -4.95972075e-02   5.36445549e-01   1.58558520e+07
 -1.80516989e-01  -2.48267475e-02   5.32857272e-01   1.34184140e+07
 -4.52417441e-02   6.37548290e-02   5.68783874e-01   5.19688700e+06
  1.93847035e-01   1.15594540e-01   6.95810376e-01   1.84169100e+06
 -1.82123591e-01   3.15234904e-03   5.39810958e-01   3.28963000e+05
 -1.94171274e-01  -1.12487404e-01   5.47068521e-01   6.06896500e+06
 -1.22912963e-01  -4.99427230e-03   5.27943875e-01   1.25597680e+07
 -6.09204896e-02   6.23369318e-02   5.49667884e-01   4.86817900e+06
