# .PCD v0.7 - Point Cloud Data file format
VERSION 0.7
FIELDS x y z
SIZE 4 4 4
TYPE F F F
COUNT 1 1 1
WIDTH 1358
HEIGHT 1
VIEWPOINT 0 2.12557e-38 4.57496e-41 0 0 2.12557e-38 4.57496e-41
POINTS 1358
DATA ascii
0.081882156 0.1049059 0.63121885
0.081978597 0.073885418 0.62861782
-0.011358541 -0.023232671 0.57481652
0.08772102 0.018130695 0.633174
0.047990941 -0.016015297 0.60645431
0.053636432 0.016450632 0.6066249
-0.018196125 -0.032029144 0.57085818
0.14827971 0.11772035 0.67832953
0.14777432 0.11726418 0.6785506
0.049565054 0.097118102 0.60813749
0.051706024 0.0089903614 0.60778618
-0.021708352 0.076468267 0.56066287
0.052972507 0.09801767 0.61055529
-0.14397296 -0.034009155 0.52581948
-0.025844108 0.031424288 0.5416708
-0.11254878 -0.022391396 0.53012073
-0.026053967 0.031139184 0.54194456
0.051809032 0.0090295346 0.60771549
0.123541 0.11407068 0.66095012
0.015463841 0.058988918 0.57912004
-0.012501814 -0.020583123 0.57344788
0.071126744 0.11979048 0.62614757
-0.13153656 -0.029953502 0.52512711
-0.12054282 -0.029723745 0.5254004
0.062882952 0.024063185 0.61338627
-0.15056716 -0.039673999 0.52528757
0.14778838 0.11730001 0.67854297
-0.12433221 -0.029756062 0.52618659
-0.19336581 0.037205506 0.52006668
0.13066328 0.09095291 0.66599166
0.044386879 0.095985442 0.60410595
-0.0069950731 -0.025971288 0.57971579
0.079143576 0.073014587 0.62634623
-0.18866612 -0.054597083 0.53901774
0.026609076 0.0028134307 0.58447081
0.13083531 0.090991877 0.66591495
-0.12943691 -0.028273571 0.52617842
-0.13184156 -0.030290799 0.52566177
-0.14250863 -0.033973586 0.5253492
0.057858232 0.019442959 0.610919
0.027613971 0.087763585 0.59135544
-0.1233684 -0.030453004 0.52554935
0.053287163 0.080166876 0.60826981
-0.12972344 -0.028502418 0.5261727
-0.1231558 -0.030191693 0.52515984
0.1437166 0.11964038 0.67600656
0.062131792 0.023546765 0.61388683
0.051107008 0.016164197 0.60641712
0.054114636 0.022257665 0.6081028
0.11830762 0.087892689 0.65560454
0.014970458 0.05870226 0.57947624
0.026765222 0.0023356178 0.5844205
-0.05174768 0.11843351 0.54516637
0.047009464 -0.012077023 0.60489273
-0.10582148 -0.032560203 0.52951247
0.027573444 0.087691106 0.59140223
0.078524068 0.10627095 0.62908083
0.059518471 0.014330211 0.61318177
-0.19408995 -0.057010926 0.54154396
-0.023241811 0.077657349 0.56037533
0.14608599 0.1373395 0.67806143
-0.13586761 -0.041078892 0.52027702
0.082233503 0.12500109 0.63439983
0.0073291464 -0.024295241 0.58971405
0.052896976 0.069085039 0.60658896
-0.19878525 -0.063674897 0.54227805
-0.014195316 0.073381081 0.56236905
0.04056979 0.094929896 0.60189611
-0.011525241 0.075627282 0.56619114
-0.15483719 -0.040655769 0.52489579
0.046802517 0.011479834 0.60329562
-0.11171583 -0.023122652 0.53022766
-0.16674197 -0.04571965 0.52977151
-0.16028997 -0.041175991 0.52853298
-0.15261067 -0.040039446 0.52520555
-0.16772771 -0.046019144 0.52941877
0.056320809 0.024712253 0.60982317
-0.16061777 -0.041501608 0.52911466
0.055114232 0.066205718 0.60848552
0.14321801 0.11898949 0.67568249
0.14808692 0.10399416 0.67808461
0.080254562 0.089962244 0.62880307
-0.11989861 0.075800069 0.53966451
0.0020085743 0.054471727 0.56916666
0.046235621 0.010121979 0.60325402
0.0030172511 0.054381236 0.56968331
-0.016272232 -0.026464285 0.57249326
-0.20050544 -0.11632718 0.55289149
0.026474072 0.0013968768 0.58468992
-0.20603973 -0.11858507 0.55935538
-0.20458183 -0.11747174 0.55648524
0.0537338 0.069790259 0.60769713
0.019572746 0.059193321 0.58156484
-0.16869086 -0.047439903 0.53069329
0.11324946 0.12962846 0.65551817
-0.11132812 -0.024752896 0.529917
0.11337351 0.12955293 0.65549183
0.076442935 0.075058065 0.62435687
0.15715726 0.13180712 0.68607897
-0.12445153 -0.032182537 0.52534729
0.0071542417 0.055853821 0.5721609
0.15365596 0.12293157 0.68317604
-0.14818828 -0.035906207 0.52628076
-0.0071802796 0.063795231 0.56455779
0.024351621 0.090181828 0.58997995
-0.11555927 -0.022756765 0.52957428
0.0070919739 0.056442048 0.57237548
-0.0071611325 0.063766599 0.56456453
-0.016959062 0.08233007 0.56439739
0.041058097 0.11655874 0.60685253
0.11479355 0.12983942 0.65653849
0.054906916 0.016411344 0.60910553
0.05194759 0.093716063 0.6090014
-0.16055463 -0.046290386 0.52631211
0.054366373 0.089743003 0.6104666
0.052015752 0.077684037 0.60716635
0.054729547 0.070524454 0.60910696
0.080765642 0.11844745 0.63271415
0.0095890332 0.053648345 0.57363063
0.050331376 0.070185162 0.60543275
-0.11956499 0.073250674 0.53852522
0.048209678 0.0072920281 0.60474414
-0.15429714 -0.033098325 0.52964622
0.055361573 0.066346258 0.60833019
-0.11075792 -0.024387065 0.52923781
-0.20492515 -0.11774649 0.55717868
0.056844942 0.014530476 0.61100388
-0.12607068 -0.028136628 0.52647215
0.11499 0.12991914 0.65645695
-0.11790462 -0.022231279 0.52936476
0.15317258 0.12365618 0.68305576
-0.020678535 0.081085697 0.56269401
-0.16388865 -0.011761321 0.53230721
-0.072265901 -0.034177497 0.54427189
0.0012799898 0.05456451 0.56887722
0.048086461 0.09865649 0.60742092
-0.051968105 0.11711667 0.54475296
-0.1302852 0.070017084 0.53867418
-0.14782196 -0.041694075 0.52373993
-0.066915222 -0.030762365 0.54654175
-0.12011673 -0.021166719 0.53033787
0.12454487 0.090006404 0.66139334
0.021982292 0.087805659 0.58901024
0.044209179 0.11554532 0.60875195
0.11837022 0.11623921 0.6579932
-0.14719176 -0.035152186 0.52612233
-0.16918176 0.0021415164 0.53910798
0.057457846 0.1163387 0.61677772
0.10820566 0.10996349 0.65027636
-0.13416459 -0.0030964385 0.52839708
-0.026985448 -0.025267119 0.56675607
-0.023004912 -0.024792166 0.56582248
-0.11800087 -0.033667859 0.52621299
-0.13755238 -0.051351991 0.51715845
0.14476281 0.13693033 0.67755044
-0.13985994 -0.03227336 0.52535182
-0.15219536 -0.040408265 0.52568984
-0.0041286754 0.060481939 0.56570423
0.05645017 0.1157627 0.6165179
-0.13468403 -0.0035569246 0.52865738
0.020978717 0.0065335268 0.57919192
-0.13468449 -0.030110464 0.52642232
0.0086316485 0.071105637 0.57626641
-0.13798559 -0.051509921 0.51718223
-0.11511447 -0.021914857 0.53006494
0.098183729 0.12749977 0.64946026
0.13634206 0.10511567 0.66994363
0.084935635 0.089014463 0.6319918
0.030055534 0.00030081367 0.58777678
0.14529864 0.10058635 0.67611521
-0.14176504 -0.051870648 0.51776582
0.14119077 0.1376664 0.6756016
0.15211292 0.11468319 0.68142241
0.015095054 0.055050887 0.57793272
0.066630356 0.098260164 0.62015897
-0.12246845 0.061896801 0.53417581
0.051051278 0.095680706 0.60886621
-0.15366237 -0.048554666 0.5217464
0.14880049 0.096350007 0.67856783
0.057282813 0.092099972 0.61245096
0.018493192 0.087282121 0.58680111
-0.11829959 0.076159351 0.53990364
-0.021531118 0.080802336 0.56198096
-0.15619253 -0.0093420073 0.53100431
-0.15980695 -0.048198555 0.52543092
0.018805552 0.068606235 0.58323991
0.136071 0.12773046 0.67165476
-0.16399913 -0.012072832 0.53281361
0.12731114 0.10987558 0.66292262
0.12538572 0.1320031 0.66476429
0.1214166 0.088269971 0.65859234
0.084493607 0.07823351 0.63091797
0.1186906 0.09586224 0.65625364
-0.021692548 0.080602959 0.56216484
-0.15586485 -0.0089786435 0.53043163
0.13758382 0.10479653 0.67086124
0.051631819 0.098389082 0.60941893
-0.095850423 -0.03169721 0.53506291
0.0044948189 -0.023852659 0.58774137
0.082324877 0.1252369 0.6354875
0.13581271 0.10520136 0.66986907
0.054637142 0.0095284386 0.61022365
-0.00016285494 0.05118949 0.56589562
0.075579278 0.080543779 0.62422144
0.092856489 0.10497124 0.63912463
0.036833435 0.019886395 0.59389371
-0.12582499 0.071561016 0.53858799
-0.15383168 -0.049873929 0.52151757
0.035550039 0.10753416 0.60146296
0.095078565 0.027524324 0.63867778
0.061261699 0.026383167 0.61366427
0.01905982 0.082339145 0.58607715
-0.059823677 -0.028861057 0.55109268
0.077577814 0.08675012 0.62610281
0.054611787 0.011931667 0.61074245
-0.13135228 -0.049680635 0.51776463
-0.14014015 -0.051799096 0.51758069
0.075168997 0.094668068 0.62554258
-0.00065742986 -0.0245267 0.58437943
0.11669914 0.12972978 0.65752035
-0.02811436 0.072974414 0.5574668
0.12800021 0.11570037 0.66404873
0.0074743801 0.082417034 0.57858938
0.059935346 0.11880013 0.61871225
0.04395527 -0.017471045 0.60429204
0.1435456 0.13691427 0.67696702
0.036522485 0.026621044 0.59173125
0.054968603 0.0096594514 0.60999858
0.067565084 0.079422608 0.62085152
0.063831337 0.07589253 0.61543286
0.037204709 0.014221136 0.59363896
0.049650244 0.0027685831 0.6067189
-0.14040847 -0.0331898 0.52520365
0.0042693377 0.049391598 0.5693109
0.001718537 0.075620152 0.57241672
-0.065011077 0.031631082 0.53670329
-0.13118573 -0.049399495 0.51823664
0.036601312 0.01357699 0.59412277
0.051300891 0.084759727 0.6075511
-0.015994063 0.083857022 0.56518263
-0.064972363 0.03160914 0.53670317
-0.10949764 -0.026511412 0.53002375
0.063275404 0.095513523 0.61613822
0.065540306 0.073041916 0.61628723
0.109152 0.11397076 0.65119344
0.0078103826 0.015043869 0.56709701
0.13507243 0.093548425 0.66914648
-0.1427771 -0.046439689 0.52035052
0.058292452 0.11375047 0.61701471
0.0032539803 0.052331168 0.5694617
-0.12029882 0.07054121 0.53713381
-0.083967216 -0.028749164 0.53785485
-0.13329206 -0.0037385379 0.52788895
0.078826383 0.077230476 0.62635553
-0.15218659 -0.037573393 0.52692133
-0.0040332344 0.06576822 0.56717128
-0.084666394 -0.031106478 0.54120398
-0.065677062 -0.022120286 0.5471046
-0.15216623 -0.048734497 0.52164608
-0.021028783 -0.028215302 0.56860745
-0.1806595 -0.011046522 0.53673011
0.1287718 0.13270298 0.66702873
-0.092353053 0.022173418 0.53267461
-0.17847873 -0.042929981 0.58162129
-0.14264369 -0.04737445 0.51988512
0.026404956 0.0058029597 0.58383811
-0.14998452 0.01141425 0.5387004
-0.15110624 -0.037511986 0.52649438
0.019236462 0.07373751 0.58404911
0.17940202 0.1297095 0.69809371
0.048670828 0.10990322 0.61010534
-0.027212819 0.079837345 0.559753
-0.14411467 -0.037730444 0.52415162
-0.075198472 0.028004175 0.53497887
0.011291202 0.060215715 0.57898307
-0.026629739 0.079071373 0.55979156
-0.021713819 0.042229205 0.55147177
-0.0083584636 -0.033241462 0.58043808
-0.12870874 -0.038572636 0.52285355
0.067712456 0.12062687 0.62430722
0.06838946 0.062470451 0.61725134
0.018080469 0.073925763 0.58338529
-0.16123171 -0.040487543 0.52893847
-0.14418079 -0.038699362 0.52379841
-0.19739099 -0.058678176 0.54229587
-0.11620731 0.076156497 0.54035217
0.13782451 0.10193309 0.67062277
0.022507897 0.063941412 0.58435613
0.063743278 0.077482119 0.61552233
0.092234425 0.11795169 0.63942027
-0.15555036 -0.048121858 0.52296168
0.072135203 0.11086882 0.62536871
-0.13456981 -0.052598603 0.51651525
0.10829988 0.12397397 0.6523658
0.03335781 -0.002025017 0.59092945
-0.13573068 -0.029549154 0.52563983
-0.0020638739 0.057919167 0.58191109
0.01784545 0.07382974 0.58352846
-0.015499454 0.083505094 0.56527954
0.10355957 0.17810959 0.62562263
-0.0058367732 0.049293112 0.56266052
0.059944365 0.027908396 0.61232054
-0.11037758 0.0072045429 0.55368608
0.13876462 0.10129863 0.67136449
0.13761345 0.10180169 0.670717
0.061903104 0.080151275 0.615201
0.085087575 0.072164737 0.63129431
0.014014228 0.089784227 0.5842436
0.0050497227 0.056843463 0.57121032
-0.12919734 0.065508217 0.53635466
0.10213323 0.11411565 0.64630866
0.13129491 0.10720769 0.66596031
0.005323532 0.053550202 0.57055694
0.12869926 0.086085074 0.66330141
-0.12883851 -0.034405787 0.52440643
0.053381447 0.11752126 0.61511046
-0.12952496 0.058917783 0.53290588
-0.12985078 -0.047652047 0.51930988
0.010274299 0.084332958 0.58035094
0.1513276 0.12713821 0.68220723
-0.16282445 0.018236963 0.54386413
-0.13130316 -0.04868108 0.52136582
0.037047476 0.095844828 0.59976292
-0.13547331 -0.04137231 0.52136815
-0.1597209 -0.013132215 0.53039753
-0.13963035 -0.034834258 0.52441031
0.10039425 0.18055648 0.62376779
0.055002403 0.078573234 0.6085391
0.072788723 0.10028487 0.62387741
0.058509879 0.11280047 0.6165269
0.0072000078 0.085824281 0.57937241
-0.079165861 -0.029070998 0.54447013
0.12944509 0.087211683 0.6643517
0.053020362 0.0056693153 0.60888344
-0.12211918 0.067628779 0.53572851
0.038829949 0.092510417 0.60020256
0.11652503 0.089380287 0.65457529
-0.11976691 -0.031080054 0.52681094
0.0056320485 0.01617652 0.56542051
0.12010675 0.11892865 0.65919679
0.075376458 0.0084832488 0.62493336
-0.065785155 -0.023952138 0.54775995
0.047974724 0.067056492 0.60322571
-0.1358982 -0.028064772 0.52658939
0.088063218 0.11230534 0.63717628
0.11946832 0.11832228 0.65952325
-0.075459607 -0.035489801 0.54330283
0.12475181 0.091324106 0.66081536
-0.10332859 -0.024677889 0.53250653
-0.1166278 0.012978224 0.53295988
0.16595429 0.10118147 0.69127798
0.072084248 0.073221587 0.62156683
-0.13135512 0.033567026 0.54055703
-0.077163145 -0.036717169 0.54530567
-0.15190519 -0.046766583 0.52235693
-0.14930445 -0.041840713 0.52402323
-0.13659953 -0.041254982 0.52243376
-0.1273222 -0.031168651 0.52562678
-0.15542458 -0.044532388 0.52486831
-0.031567462 0.069370851 0.55458444
0.048446074 0.094180241 0.60689521
0.03286764 0.092448361 0.59629428
0.005795795 0.080707379 0.57750225
0.059220731 0.075557254 0.61215192
-0.15254383 -0.0050063245 0.52909321
-0.12885326 -0.033589747 0.52445734
0.047380589 0.0035504946 0.6047368
-0.032502562 0.028142424 0.53678137
-0.0023762195 0.05285605 0.56544733
0.048896294 0.07151188 0.60425544
-0.16112171 0.014738793 0.54063541
-0.12127957 0.066489995 0.53670412
0.088950351 0.11495423 0.63739604
-0.1985821 -0.058552269 0.54280269
-0.17735769 -0.049773701 0.53396779
0.035862386 0.024345184 0.59303218
-0.0056805518 0.079221949 0.56988251
0.016052665 0.052854981 0.57845777
0.14555246 0.11187118 0.67727286
0.051002853 0.012481094 0.6069625
0.11249997 0.11085591 0.65305495
-0.087640092 -0.022683514 0.53702575
0.11003936 0.12001815 0.65278441
0.032149304 0.1523737 0.59057778
-0.15079321 -0.036951199 0.52692652
0.054915592 0.11921096 0.61582118
-0.17163354 -0.046380293 0.53184968
-0.17202263 -0.046025217 0.53244656
0.077119514 0.095705308 0.6255371
-0.11427513 0.076987065 0.53994524
-0.029906383 0.043181568 0.5468508
0.027429095 0.10571872 0.59602833
0.11132182 0.090332158 0.65140247
0.047745135 0.0051474632 0.60481888
-0.010762955 0.058861554 0.56074679
-0.19259566 -0.11259682 0.5435397
0.024615398 0.074809611 0.58750886
0.04317059 0.0065826937 0.60101622
0.0030005916 0.06545835 0.57206929
0.070586435 0.071342953 0.61996609
0.10361825 0.17531382 0.62564301
0.054157741 0.052434061 0.60712451
0.13426779 0.099880181 0.66854161
0.031911772 0.152127 0.59076339
-0.096040659 -0.021878274 0.53616136
-0.20264398 -0.11395478 0.55393571
-0.0028851407 0.065888457 0.5673086
0.12510805 0.10238822 0.66125607
0.047645699 0.0050227954 0.60489213
0.0041939924 0.069770209 0.57380342
-0.032196924 0.068372041 0.55393118
-0.13048699 -0.0028614039 0.52847338
0.033515338 0.00054413889 0.590716
-0.19427957 -0.063207462 0.5411427
0.048010401 0.071281351 0.6038692
0.1069327 0.11659699 0.64935338
-0.15266828 -0.043152556 0.52440709
0.021562843 0.070302777 0.58452362
-0.14603183 -0.036257517 0.52518421
0.14275882 0.11443267 0.67503178
0.015652169 0.067767583 0.58095318
-0.16507809 -0.055888642 0.52400041
0.12374332 0.18028526 0.63931543
0.070011482 0.071373776 0.61973667
0.084109619 0.070216969 0.6302529
0.18164887 0.13554397 0.69960737
0.0066739288 0.085098535 0.57895303
0.043672323 0.092911914 0.6035825
0.11921147 0.095083639 0.65654278
0.11697214 0.1806004 0.63548636
0.020288955 0.088686712 0.58798128
-0.16126513 0.02034987 0.54213983
0.053099252 0.10252229 0.61208689
0.016239313 0.066624403 0.58122885
0.14142212 0.13144444 0.67536122
0.016455373 0.073111244 0.58254313
-0.13406344 0.070837371 0.53849971
0.010336905 0.057404827 0.57519454
-0.15537499 -0.043934524 0.52480662
-0.022031249 0.062362917 0.55595738
-0.012122283 0.058160473 0.56053317
0.047651567 0.073134162 0.60409665
0.0085505052 0.049796324 0.57246411
0.053277154 0.11102226 0.61302352
0.066138409 0.10688863 0.62095994
0.015155441 0.063201815 0.57973468
0.06940075 0.099385835 0.62205988
-0.025427252 0.028282236 0.54133004
0.048385963 0.10287327 0.60893422
0.063722841 0.10332004 0.61862069
-0.013112891 -0.018697131 0.57291931
0.050544832 0.10004752 0.60944796
0.010934667 -0.02239305 0.59185356
-0.12769541 0.06602741 0.53757381
0.037725836 0.11565416 0.60485673
0.08585114 0.098856121 0.63339156
0.032829903 -0.0052875653 0.59085649
0.08048714 0.014280032 0.6284076
-0.02476758 0.045920592 0.54982185
-0.13223282 -0.00050778151 0.5293889
0.12165853 0.18459649 0.63891679
-0.10265686 0.085850738 0.54182392
-0.13675942 -0.043735545 0.5205633
-0.13610201 -0.02733103 0.52724886
-0.012243245 0.056697179 0.56010479
-0.13652936 -0.04622902 0.51990354
-0.088975608 -0.02343072 0.53846592
-0.031796213 0.043866131 0.54624659
0.068788253 0.049144045 0.61844271
-0.11457583 0.035475548 0.54283518
-0.097507916 -0.025022229 0.53529614
0.040558372 0.090747982 0.6003719
-0.15300579 -0.03845178 0.52676809
0.10137437 0.18174881 0.62501431
-0.094903283 -0.022431796 0.53635073
0.04069775 0.090896405 0.60026073
0.059195884 0.063238025 0.61040282
0.045165602 0.10652743 0.60726738
-0.08019425 -0.028859347 0.54388857
-0.0090525392 0.044106506 0.55893344
0.053468093 0.11002416 0.61313492
-0.16038793 -0.0575305 0.52139091
0.059342775 0.12241397 0.61994588
0.080585934 0.079686098 0.62878007
0.10182042 0.12851059 0.64794683
-0.14071976 -0.041611437 0.52223307
0.0099109458 0.086180709 0.58067584
0.020123558 0.14401935 0.58286524
0.020941827 0.067020044 0.58386081
-0.11238129 -0.027036775 0.52885741
0.10668758 0.077895194 0.6471796
0.057929598 0.038705703 0.61007327
-0.11234041 -0.033629775 0.52748883
-0.13862349 -0.035954762 0.52347392
0.041164819 0.025842512 0.59722978
-0.1540183 -0.041302457 0.5257833
-0.023122473 0.062899537 0.55500507
0.067828976 0.10520144 0.62190837
0.14849153 0.1245355 0.68045133
-0.11277795 -0.027424537 0.5294562
0.15100361 0.12066396 0.67743754
0.046534583 -0.019326404 0.60647988
-0.19097948 -0.057519719 0.53935188
-0.064504653 0.059122838 0.54769611
0.046021551 0.019086858 0.60162544
0.041351732 -0.013385992 0.60023391
0.065840609 0.085164659 0.61760235
0.04684392 0.10315475 0.60744524
0.080486238 0.081399396 0.62766367
-0.063320406 -0.023133332 0.54830325
0.13558228 0.099467725 0.66980743
-0.074467994 0.055152282 0.54643732
0.0003396784 -0.031764735 0.58702022
0.15762214 0.10095783 0.68616909
-0.13401753 -0.041110795 0.52095455
0.11379445 0.10177583 0.65475553
-0.003072096 0.056400571 0.56572121
-0.14816517 -0.051698931 0.51988155
-0.13241898 -0.02865617 0.52719104
-0.1784351 0.001233983 0.53878891
-0.12775673 -0.045056242 0.52170736
0.074462488 0.088754065 0.6236701
-0.16100366 0.015907986 0.53250152
0.17287661 0.13097008 0.69410986
0.016145822 0.066564865 0.58129668
0.060247339 0.012074297 0.61411726
-0.026771741 0.042914554 0.54805148
-0.18791668 -0.067874901 0.53574932
-0.14770995 -0.052625787 0.51909912
0.19189458 0.10098292 0.69330442
-0.055666376 0.020468509 0.53164506
0.053947836 0.03346071 0.60679144
-0.078700043 0.050899476 0.54410881
-0.13613145 -0.045397818 0.52012873
0.059061669 0.10575671 0.61601341
-0.14714627 -0.041146576 0.52520317
0.18917929 0.088728286 0.6911068
-0.1553891 -0.038899299 0.52688158
-0.10959768 -0.038227625 0.52768993
-0.011699047 0.064914778 0.56254566
0.089043215 0.062520273 0.63377684
-0.1127862 -0.032021318 0.52756703
-0.11680484 -0.039572369 0.52554691
0.11274796 0.13191114 0.65598315
-0.12940121 0.063487694 0.53496605
-0.12854376 0.0033893415 0.53126907
0.0865748 0.086089455 0.63214296
-0.16411249 -0.050049253 0.52657521
-0.14069256 -0.042200707 0.52193618
0.025013959 0.06193883 0.58486241
0.19646099 0.11516491 0.6974439
0.041927777 0.091537863 0.60173863
0.049863268 0.0012658592 0.60667562
-0.18535013 -0.071946964 0.53352875
-0.11039586 -0.037240814 0.5276584
0.0065804408 0.011989601 0.56594294
-0.12124398 -0.026834441 0.52779776
-0.095399626 -0.026569216 0.53577405
-0.19469683 -0.074873753 0.54017246
-0.11043518 -0.032380793 0.52840441
0.017648868 0.067318149 0.58196038
0.033632375 0.016020166 0.59195167
0.074085414 0.066678822 0.62229097
0.0079049533 0.068134196 0.56072909
-0.11877424 0.068912566 0.53722978
0.070873566 0.10562278 0.62419331
0.021898633 0.14382738 0.58359534
-0.11515816 -0.027305873 0.52854562
0.02567164 0.0633322 0.58634424
-0.13566774 -0.045553137 0.52020824
0.043671619 0.015535099 0.60059398
-0.1846168 -0.049785212 0.53786266
0.16076842 0.12865193 0.68785036
-0.1527164 -0.082779087 0.52833742
-0.093444958 -0.026195925 0.53667128
-0.18045251 -0.047793824 0.53606743
-0.12089729 -0.023683647 0.52898365
0.036750805 0.09749411 0.60016245
-0.18354781 -0.070162214 0.5298475
-0.17010598 -0.046158347 0.53065372
-0.14109342 -0.042783715 0.5213061
-0.018024791 -0.018757623 0.56906062
-0.15330312 -0.040609173 0.52583992
-0.171198 -0.046760343 0.53146404
-0.10599112 -0.024181018 0.53158498
0.054626353 0.07410904 0.6094256
0.013851156 0.050470255 0.57651335
-0.16922148 -0.017577913 0.53250206
-0.089874983 0.10423187 0.54000157
0.073831029 0.088168047 0.62407792
0.019976163 0.00085498218 0.57901305
0.14529446 0.11158299 0.67738986
0.049261328 0.078884467 0.60492015
0.0051185437 0.04812615 0.57031721
0.11292115 0.076016322 0.65161175
-0.035521492 -0.021475943 0.56060994
0.035234433 -0.0016615317 0.59283835
-0.0017013676 0.044844929 0.5637235
-0.1264168 -0.043420017 0.52178258
0.056311164 0.1144576 0.61555094
0.004326948 0.011225511 0.56433052
0.039823756 -0.0061726859 0.60066515
-0.21441236 -0.12105987 0.5659216
0.094699509 0.1781778 0.62007749
-0.096587457 -0.020731969 0.53693932
0.056891028 0.078152105 0.60979235
-0.18543413 -0.065799676 0.53408515
0.081961937 0.042776521 0.62891728
-0.095725939 -0.02677484 0.53615063
-0.093599789 -0.026366066 0.53690189
0.082642823 0.049647182 0.62918586
-0.18367949 -0.065394662 0.53301018
0.020341041 0.00096350961 0.57873327
0.088467441 0.022089073 0.63392985
-0.02484398 0.024271233 0.54112124
-0.080505401 -0.020548582 0.5396803
0.043171927 0.10431053 0.6055094
0.050175652 0.060937062 0.60407883
-0.21958336 -0.13093291 0.57438403
0.074022867 0.083484754 0.62348413
-0.1162354 -0.028398512 0.52796769
0.0083530424 0.075040586 0.57663596
-0.12662327 -0.0059308503 0.5280757
-0.11100217 -0.019937407 0.53124553
-0.20832993 -0.087468117 0.54051822
-0.12240226 0.064738028 0.53477877
-0.14004247 -0.035800159 0.52389592
0.14723647 0.17020915 0.67635286
-0.035310462 0.031658772 0.53922999
-0.19654518 -0.11536682 0.54841387
-0.14391655 -0.044376813 0.52136236
-0.16917376 -0.057895057 0.52589202
-0.025115352 -0.01664607 0.56402797
0.14909264 0.10276981 0.67900103
-0.080758676 -0.020839 0.54004568
0.051038772 0.15133278 0.59765553
0.036713842 -0.019702524 0.60140693
0.0034041607 0.07663396 0.5749979
-0.16031182 -0.0073388717 0.53344959
-0.089615367 0.10451133 0.53970683
0.035977047 0.091020986 0.59844434
-0.094708219 -0.026859542 0.53605336
0.17916082 0.13857104 0.69830227
0.12565224 0.0903515 0.66134393
0.12917903 0.18232144 0.64335907
-0.015981488 0.086490333 0.56635398
-0.16882819 -0.016927589 0.53259462
-0.21098702 -0.11833647 0.55890489
-0.15622059 -0.012211008 0.5300706
0.025831174 0.082236275 0.58937573
0.18070069 0.13428345 0.6986894
-0.024815351 -0.017080868 0.56399441
-0.11129849 -0.038665436 0.5271126
-0.1907748 -0.067761555 0.49223942
0.079063863 -0.046913624 0.62294668
0.13744076 0.13090768 0.6302942
-0.077944286 -0.035605416 0.54076517
-0.007272175 -0.020564623 0.5776819
0.013293996 0.050011158 0.57697934
0.050742298 0.061176319 0.60373282
-0.21252637 -0.12121541 0.55413729
0.087039642 0.096952982 0.63364482
0.036896102 0.074851818 0.59627378
-0.15104383 -0.010098781 0.52960098
0.0043083555 0.085508205 0.57713223
-0.16800964 -0.044093072 0.53098637
-0.19713022 -0.086432807 0.54626554
0.15124387 0.10716744 0.68021441
-0.033908382 -0.022927327 0.56210077
0.031993389 0.099406317 0.59712821
0.0048195263 0.081996948 0.57690024
-0.20878831 -0.11828957 0.54630673
0.10880808 0.083199576 0.64897919
-0.1985008 -0.11677822 0.55212557
0.050114047 0.075106882 0.60558343
-0.0346465 -0.0083376803 0.53022242
0.016165804 0.0064008022 0.57435572
-0.020744201 0.059979681 0.5557065
-0.1380032 -0.028527839 0.52622253
0.079990946 0.079198614 0.62733626
-0.011937167 -0.040950838 0.58007383
-0.03778749 0.042590767 0.54355228
-0.06401968 0.045673333 0.54284376
-0.02088185 0.045484543 0.55162597
0.1125877 0.12451196 0.65486532
0.022603627 -0.022568878 0.59145099
0.075521462 0.11490779 0.62815773
0.071229689 0.079436831 0.62140977
0.13442887 0.10708053 0.66906369
0.060819909 0.10478562 0.61720961
-0.099685304 -0.022607548 0.53461248
0.058741536 0.062881157 0.61144054
-0.095440663 -0.028561955 0.53618169
0.0072977166 0.010226541 0.56684911
-0.12902492 -0.050866205 0.51851279
0.031914912 -0.0088845836 0.5913626
-0.057397325 0.0044352352 0.54707837
0.040905915 0.032990891 0.59661543
0.1161469 0.11884135 0.65620631
-0.18229941 -0.047681931 0.53627932
0.14590177 0.14143828 0.67862839
-0.18633302 -0.073411271 0.53344345
0.031539105 0.098298453 0.59658128
-0.19630393 -0.070486307 0.54110765
0.037410416 -0.022246391 0.60281169
-0.14085861 -0.055024479 0.51439416
-0.11678763 -0.026315443 0.52809793
0.072671905 0.050748765 0.62112302
0.015674559 0.097124033 0.58508396
-0.12652025 -0.067563057 0.5302372
0.089712717 0.053915463 0.63445038
-0.097623043 -0.026451826 0.53480905
0.057321209 0.10414384 0.61401856
-0.16613489 0.014159 0.54158419
0.070176102 0.047965698 0.61942887
0.019260263 0.0023013717 0.5783214
0.16897441 0.10734402 0.68148744
-0.13919878 -0.047523692 0.51991111
0.070377797 0.08382234 0.61991644
-0.21623287 -0.12412271 0.56190908
-0.016984252 -0.018129207 0.56949562
-0.021024149 0.045385797 0.55175227
0.012279318 -0.02520768 0.59283501
-0.049135417 -0.028703252 0.55510128
-0.18272513 -0.02239031 0.53431016
0.15289609 0.10809872 0.68220013
-0.10039496 -0.042292025 0.53164011
0.086487584 0.096677601 0.63392895
-0.17724818 0.0040013497 0.54348063
-0.12932612 -0.0084019257 0.52744728
-0.0070108869 0.045056149 0.56027937
-0.0045968262 -0.020297501 0.57994044
0.07379894 0.085468747 0.6231842
-0.10013445 -0.040765528 0.53258938
-0.013020315 0.050232127 0.5583269
0.073176347 0.087590776 0.62449354
-0.11314885 -0.018085571 0.53088075
0.082331099 0.079025961 0.62924534
0.044988114 0.076845616 0.60206968
-0.1307424 -0.051486269 0.51763445
0.010580628 0.028296562 0.57231009
-0.14296316 -0.056428023 0.51720381
0.067216843 0.11053431 0.62204498
0.090039752 0.053375244 0.63440955
0.026127238 -0.020836452 0.59580308
-0.13439506 -0.0481463 0.51842493
-0.072583824 0.05445163 0.54628724
-0.15566884 -0.01166805 0.5291999
0.03483725 -0.0013759352 0.59232432
-0.14623442 -0.0080537284 0.52898294
0.098836608 0.032089237 0.64118886
-0.036745142 0.033277541 0.53937948
-0.15581006 -0.039707087 0.52705431
0.058599293 0.049544591 0.60998833
-0.16120796 -0.066068918 0.51526612
0.012469552 -0.021088082 0.59201598
0.068972103 0.10919205 0.62318158
-0.20318192 -0.06156088 0.54306448
-0.072586596 -0.019075692 0.54505742
-0.09982869 -0.024461061 0.5339787
-0.034181677 0.034012917 0.54075873
-0.13533194 -0.02592238 0.52725947
-0.21107157 -0.11789477 0.56313455
-0.1210964 -0.03427922 0.52545792
0.013370116 0.060914602 0.57786381
-0.18801099 0.0056990767 0.54273897
0.022136291 0.092411138 0.58979177
-0.13918394 -0.047874104 0.51933914
0.041709282 -0.0037878451 0.60013872
-0.040378246 0.029056353 0.53568566
-0.040963564 0.024282251 0.535667
0.027045907 0.059751794 0.58725226
0.12238132 0.090917811 0.65916502
-0.072045267 -0.022571154 0.54556882
-0.0012624252 0.062133532 0.56790638
-0.12145504 -0.021727169 0.52798432
-0.0050945384 0.018991506 0.55569237
-0.1554438 -0.038931504 0.52694684
0.0029084394 0.072426364 0.57367867
0.058559265 0.029944796 0.61101848
-0.126661 -0.047028858 0.51798058
0.070266575 0.067489408 0.61989897
-0.097337589 -0.026307274 0.53450513
-0.12008125 -0.044625074 0.52043718
0.11307886 0.06813062 0.65236074
-0.1586228 -0.063831091 0.51823676
0.14576982 0.18800433 0.65501815
0.039640073 0.064330585 0.59695256
-0.19954963 -0.025092075 0.52703142
-0.050052986 -0.02280461 0.5535779
0.082887888 0.093086764 0.63126922
-0.17481168 -0.019748164 0.53348589
-0.21015985 -0.12583283 0.56329352
0.038051777 -0.022076057 0.60232604
-0.040571228 0.024535088 0.53528851
-0.13522677 0.0039353687 0.53556603
-0.03807351 0.073523775 0.55625528
0.069451682 0.043217197 0.61903375
-0.16881302 -0.016937012 0.5326122
-0.029726792 0.035279598 0.5407837
0.091459744 0.096833244 0.63715178
-0.16127926 -0.067417517 0.51592779
0.13645534 0.13756423 0.67367107
0.052754834 0.10529261 0.61151695
-0.19102046 0.0075736567 0.54077393
-0.13984059 -0.044841249 0.52053648
-0.10792474 -0.019488737 0.53255051
0.033188324 0.09697216 0.59794295
-0.093984485 -0.037850067 0.53649676
-0.033109441 0.026418811 0.5368678
-0.18768424 0.0065604807 0.54295176
-0.05358661 -0.028382234 0.55269891
-0.18066248 -0.047319841 0.5363915
0.082724266 0.098572455 0.61399382
0.046282072 0.092597634 0.60531753
-0.071878068 -0.028511889 0.54775596
-0.12418016 -0.037447423 0.52612919
-0.10121985 -0.021212107 0.5342775
-0.14482886 -0.0075507392 0.52893674
0.075159609 0.050630145 0.62265408
0.18813133 0.090598844 0.69034582
0.0063287797 0.13883971 0.57361513
0.021664744 0.092116915 0.59010035
-0.057651535 -0.021134362 0.55144495
0.074288212 0.050431203 0.62213218
0.03781116 -0.019354835 0.60057944
-0.18623526 -0.081722252 0.54283351
-0.14965935 -0.060182456 0.51523864
0.11811627 0.17123093 0.63479888
-0.085102722 -0.030574171 0.54213852
-0.12897459 -0.050280046 0.51829845
-0.12638973 -0.066969939 0.5310818
-0.14594644 -0.0074600675 0.52934623
0.17998749 0.14366512 0.69967395
-0.12937872 -0.066997342 0.52706999
-0.099756457 -0.043822777 0.53283435
-0.03741876 -0.041078012 0.57339293
-0.11942782 0.080172338 0.54212564
0.019589387 -0.016674306 0.61077088
0.015543449 0.020147949 0.56314397
-0.015419938 0.081305526 0.56480402
0.041344296 -0.016131187 0.60160244
-0.018514518 0.084974051 0.56482559
-0.0055396855 0.042921573 0.56110507
-0.020538673 0.054841805 0.55514032
-0.024257457 0.041706208 0.54888231
-0.12180306 -0.0089999875 0.52982736
0.1100269 0.10085009 0.65083599
0.040371243 0.10394506 0.60355163
-0.18130605 -0.076549836 0.52577615
-0.135332 0.0036714221 0.53592312
-0.14876771 -0.062046554 0.51647991
-0.075188689 -0.017974745 0.54037637
0.026137505 0.025676154 0.58503342
-0.09840209 -0.024577377 0.53504151
-0.068543606 -0.020525806 0.54354942
-0.053857416 -0.021859154 0.55249077
-0.20043263 -0.10143898 0.60115856
-0.18571231 -0.074593984 0.53277069
-0.038814101 -0.020200867 0.55912465
-0.0097629996 0.071939714 0.5655874
0.037411265 0.10303481 0.60161424
-0.11191943 -0.031270687 0.52803928
0.10474893 0.081020735 0.64603657
-0.019995285 0.043959133 0.55212587
-0.018330395 0.060920842 0.54861623
-0.15627624 -0.064166449 0.51618415
-0.16852131 -0.069116957 0.52063948
-0.054441962 -0.028743586 0.55178142
0.091959305 0.028634341 0.63685673
-0.1247389 0.0020258757 0.53079933
0.074635774 0.050286457 0.62297684
-0.066129968 0.042468723 0.54047054
-0.15137002 -0.009677791 0.5298689
-0.20679919 -0.12377307 0.56008792
-0.16861205 -0.042279456 0.53163266
-0.022835655 -0.027505009 0.56750977
0.081952401 0.055491786 0.62859398
-0.10027774 -0.024233755 0.53402007
-0.0066022188 -0.02992386 0.58149642
-0.11375787 -0.042594422 0.52626026
0.058059495 0.072917841 0.61141318
0.11549345 0.075230539 0.65392536
-0.12767856 -0.052557785 0.51706988
0.14678968 0.18529397 0.6561144
-0.16875358 -0.067951426 0.51834285
-0.20755281 -0.12527746 0.56179798
0.15593696 0.11050019 0.68092084
-0.20149297 -0.022102971 0.51860738
-0.063269295 0.019459184 0.52654403
0.029276302 0.066033632 0.58960479
-0.1049834 -0.018633293 0.53266209
0.061508998 0.10369717 0.61735851
0.10672849 0.092440687 0.64779413
-0.080916986 -0.032341819 0.54256076
-0.19211183 -0.10488664 0.5436964
0.04347064 0.072600313 0.60095835
-0.023786251 0.047359027 0.55062652
0.029985968 0.069125101 0.59042627
-0.13962637 -0.054876637 0.51834476
-0.019096714 0.068174109 0.55908018
0.12524921 0.07561978 0.65989596
-0.094868876 0.016436407 0.52961409
-0.12211693 -0.028370684 0.52706337
0.067328133 0.11182703 0.6224829
-0.054579742 -0.028789032 0.55190885
-0.20064525 -0.10902417 0.55102903
-0.16118023 -0.06311813 0.52033454
0.070815802 0.05625644 0.61907345
-0.066085719 0.017520413 0.52949864
-0.026665812 -0.035698991 0.56596613
0.13250244 0.093617015 0.66675359
-0.14871489 -0.05610228 0.518529
-0.052322298 0.020069869 0.53500557
0.15420786 0.11584876 0.68357641
0.092878237 0.080654092 0.63725913
0.028946336 0.072679527 0.59030277
-0.12677433 -0.049334433 0.51877862
-0.0077341725 0.13068007 0.57115358
-0.036372978 -0.018428309 0.55928022
-0.16070136 -0.066577405 0.51853716
0.095857412 0.17900704 0.61949062
-0.035161961 0.028192496 0.53765851
-0.014138838 0.042704862 0.55576223
-0.013690491 -0.016074106 0.5722062
0.09531486 0.10199323 0.64015305
0.1130811 0.11880334 0.65472484
-0.16557011 -0.039989758 0.53071469
0.10322801 0.079636425 0.64687592
0.10774875 0.10389452 0.64909488
-0.19227153 -0.082424089 0.53403717
-0.041438889 -0.026676564 0.55741411
-0.1694611 -0.01242991 0.53587919
0.083140828 0.095160499 0.63074249
-0.16379887 -0.015301744 0.53150648
-0.16737117 -0.016353661 0.52526867
0.091130011 0.049209241 0.63533819
0.054902524 0.027077468 0.60822916
0.012287498 -0.026786242 0.59322453
0.10118017 0.079782106 0.64316756
-0.0082017984 0.13646068 0.57107151
-0.089239798 -0.038832594 0.53769553
-0.015436608 0.0094628185 0.55406708
0.0010474558 -0.02801989 0.58702165
-0.16978228 -0.0068263104 0.53632218
0.048681714 0.00039095507 0.60610133
0.040490068 0.10042172 0.60316253
0.099293321 0.10410348 0.64335537
-0.14696218 -0.049363621 0.52006078
0.060480189 0.033514872 0.61234307
0.078816712 0.06559173 0.62607062
-0.16012053 -1.6739378e-06 0.49556273
-0.14310129 -0.042644136 0.52200979
-0.19108823 0.0074618324 0.54095346
-0.16913855 -0.011259629 0.53586179
-0.074827656 0.040559527 0.54022014
-0.14639878 -0.040501934 0.52402711
-0.10141208 0.013039491 0.52736092
-0.0245403 -0.037015453 0.56702805
-0.18940605 -0.10945471 0.54231685
-0.10041828 -0.025780734 0.53348601
-0.10924789 -0.021893807 0.53114641
0.076818965 0.037641104 0.62533116
-0.1046752 -0.024193672 0.5344339
-0.10866673 -0.028630577 0.52984166
-0.21092075 -0.11810513 0.56206548
0.065580942 0.046549786 0.61552161
-0.14550607 0.0091897231 0.54270208
0.11050431 0.076456934 0.6503582
0.16387847 0.11213876 0.68939269
-0.037260015 0.074545525 0.55767184
-0.041956205 0.071186393 0.55434674
-0.14575371 0.0088699581 0.54315341
-0.066942185 0.046801861 0.54408324
-0.12837788 -0.048339851 0.52049446
-0.17844133 -0.046092428 0.53511155
-0.039709743 -0.027257398 0.55930054
0.16325969 0.1115947 0.68963957
-0.11540631 -0.046236366 0.52271128
0.092129074 0.084473416 0.63699299
0.079148546 0.04020809 0.62684005
-0.06664063 0.05644637 0.54740691
-0.10872221 -0.04185174 0.52635431
0.09635292 0.054801468 0.63953292
0.069155626 0.035621874 0.61903358
-0.2038957 -0.052816011 0.4951123
-0.0040944163 -0.037944175 0.58364809
-0.063323162 0.057661038 0.54759467
0.095560953 0.052171711 0.6382665
-0.16977943 -0.071376383 0.52243358
-0.17445618 -0.044449944 0.53413814
-0.048575539 -0.031073766 0.55826962
-0.15292563 -0.063822173 0.51583689
-0.20496808 -0.019300791 0.5034669
-0.031638738 0.056068346 0.55763
-0.1986414 -0.088053644 0.54652524
0.15966164 0.1101473 0.68730921
0.027535556 0.053906996 0.5871343
-0.14580595 -0.0072860429 0.52907926
0.072054878 0.10869838 0.6250487
-0.14002581 -0.058085766 0.5163933
0.099118575 0.077041328 0.64143497
0.050547276 0.028097376 0.60491681
0.14321992 0.12870069 0.67606711
-0.031843625 0.055843692 0.55785722
-0.11573022 -0.036617622 0.52623159
0.072864264 0.038217429 0.62256551
-0.14074601 -0.05906238 0.51216453
-0.019272359 0.067980789 0.55926764
-0.20220883 -0.12202927 0.55654997
-0.15428086 -0.056411564 0.51981205
0.0012719757 0.014324937 0.56313467
-0.14719543 -0.008630232 0.5290314
0.056042068 0.070031606 0.6094209
0.1665269 0.14444037 0.6916104
-0.032410618 0.07383585 0.55754972
-0.074881308 0.040490832 0.5402987
-0.1160033 -0.045152247 0.52427614
0.0088291336 -0.025719119 0.59165084
-0.089724325 0.011512551 0.52591312
-0.0034467669 0.13630025 0.57216191
-0.16941434 -0.006353741 0.535577
-0.022899603 0.048901569 0.55154258
-0.08263965 0.013870195 0.52662218
-0.067046948 0.053845424 0.54737103
-0.16312881 -0.014600037 0.53036976
0.085226223 0.095205933 0.63167167
0.059949584 0.049071427 0.61173147
-0.18658209 -0.060225122 0.53722614
-0.18547827 -0.08106754 0.52906221
0.19615126 0.11800529 0.69749057
-0.048954789 0.023798922 0.53062028
0.029385831 0.041208111 0.58772093
-0.14933674 -0.062798508 0.51427758
0.14057963 0.18199462 0.6502884
-0.15234478 -0.062279608 0.51536644
0.065340102 0.022565212 0.61666054
0.032935366 -0.023662154 0.60040569
0.06008194 0.0092998138 0.61432022
-0.042671703 -0.02580259 0.5559631
0.073293984 0.054687977 0.62181389
-0.18148099 -0.049597207 0.53644556
-0.18051699 -0.024826748 0.5328573
-0.045241743 0.063754827 0.56878388
0.19384703 0.11559454 0.69581038
-0.18212359 0.003152349 0.53981096
-0.19417128 -0.11248741 0.54706854
-0.12291297 -0.0049942723 0.52794385
-0.060920488 0.062336933 0.54966789
0.06421712 0.02165933 0.61583245
-0.11023369 0.0072775795 0.52537513
-0.094464853 0.0155107 0.52712965
-0.069792107 0.017667746 0.52768314
0.03074969 0.066624373 0.59053475
-0.12539266 0.0014414487 0.53168255
-0.12446459 -0.051257968 0.5184173
-0.0404246 0.027258785 0.53542548
-0.020893294 -0.023272628 0.56862384
-0.17111573 -0.071326353 0.52064842
0.013806639 0.092505202 0.58501875
-0.040488482 0.027265295 0.53545743
-0.0442633 0.022659376 0.53590655
-0.031246511 -0.037858784 0.56595343
-0.094325647 -0.035206102 0.53714252
-0.11620177 -0.037319921 0.52617234
-0.016452597 0.080622949 0.56413209
0.013141106 -0.026691334 0.59255028
0.053513415 0.025534675 0.6077534
-0.023257343 0.052500196 0.55262387
-0.181586 -0.075454406 0.5215047
-0.03566296 0.076415837 0.5571267
-0.18750267 -0.056800265 0.53842396
0.056337636 0.039293502 0.60864627
-0.18850854 -0.080715783 0.53204954
-0.034354206 -0.032919552 0.56231219
-0.094385624 -0.039439388 0.53913617
-0.17730105 -0.073868401 0.52110928
0.026074415 0.023267338 0.58513701
-0.044369534 0.071267851 0.55406392
0.032229554 0.071820587 0.59232235
-0.19485325 -0.053306397 0.54112297
-0.207427 -0.11421396 0.55867058
0.087046884 0.13869965 0.63282984
-0.16620125 0.021604631 0.54372466
-0.014831224 0.00075651106 0.55888987
-0.096726112 -0.036189072 0.53530151
-0.19597356 -0.056034625 0.54131514
-0.070342548 -0.02466551 0.54740304
-0.14411078 -0.0083751446 0.52841544
-0.11020314 -0.040753804 0.52549452
-0.035875447 0.073090523 0.55595773
-0.13836023 -0.027705617 0.52819991
0.03231436 0.10471899 0.59862041
-0.16845864 -0.010372493 0.53444022
-0.029250061 0.022913001 0.53857577
0.076036066 0.046500895 0.62398577
-0.032475002 -0.021436257 0.52183861
-0.20092882 -0.061099134 0.54283953
0.09626624 0.093066819 0.64034712
-0.15529722 -0.064750209 0.52039558
0.043438457 0.049887236 0.59844857
-0.15348375 -0.06496124 0.51570475
-0.00061640854 -0.034606751 0.5837689
0.0057922467 0.072356775 0.57510924
-0.19104311 -0.0269028 0.53360385
0.0090817418 0.046529256 0.57251674
-0.14843689 -0.062193334 0.51291913
0.049298119 0.085240066 0.60648048
0.020330051 0.046757232 0.58105212
-0.11601066 -0.035842605 0.52632123
0.12353414 0.12395655 0.66175497
-0.15339924 0.01949982 0.54779899
-0.12193572 -0.04148544 0.52280521
-0.022239724 0.068666197 0.5581215
0.012572481 0.042112242 0.57398921
-0.067316502 0.041342951 0.54184145
-0.022842079 0.067268252 0.55727959
-0.063845783 0.051934712 0.54518896
-0.10465414 -0.038974039 0.52984136
0.1448587 0.18745036 0.65538448
-0.083705962 -0.030167885 0.54196572
-0.18946183 -0.026681207 0.53402668
0.088779986 0.050718687 0.63439113
-0.20526689 -0.11469451 0.5570842
0.10061255 0.054849982 0.64264232
-0.0033931546 -0.015552147 0.57971317
-0.18786207 -0.081391037 0.53506631
-0.092887193 -0.038430765 0.53731757
-0.12869264 -0.054577474 0.51812428
-0.027796308 0.060321525 0.5533396
-0.18371978 -0.073531426 0.53183007
0.084440462 0.049044274 0.63055009
-0.21791776 -0.12287729 0.57284153
-0.12521178 -0.052044209 0.51595217
0.030066445 0.016828515 0.58883095
-0.10313205 -0.026661906 0.53238297
-0.12851021 -0.055072837 0.53240472
-0.093241222 -0.04002025 0.53791332
-0.035019964 -0.036847621 0.575109
-0.00042971157 0.13394012 0.57806206
-0.067726523 -0.03515736 0.54729319
-0.043016054 0.12699409 0.55149424
-0.025773369 -0.032738715 0.56663334
-0.13248979 -0.053201977 0.51728493
-0.010888817 -0.039147671 0.58012754
0.068161212 0.035246328 0.61881548
-0.10277946 -0.022076063 0.53596276
0.068041652 0.035152208 0.61889338
-0.15707324 -0.064394765 0.51546258
-0.092136204 -0.039302241 0.53658473
-0.046596542 0.026024289 0.53318983
-0.12262449 -0.052297954 0.52100182
0.081838906 0.060884368 0.62726218
-0.081152655 -0.031962775 0.54274148
-0.17702228 -0.046171919 0.5348683
-0.091476507 -0.055839226 0.55265039
-0.12689109 -0.040957067 0.52263421
0.024759388 -0.012584927 0.60669798
-0.20117271 -0.11495383 0.55309933
-0.08255434 -0.032383017 0.54122138
0.035403099 -0.023103252 0.59994984
-0.091669299 -0.037561249 0.53708315
-0.10253514 -0.035289396 0.53175694
-0.020931426 -0.037224364 0.56898934
-0.16580132 -0.048619576 0.52793819
0.0062563508 -0.02859368 0.58202958
-0.060483195 -0.023615547 0.57455379
-0.013305208 0.034767203 0.54440659
-0.079092339 -0.03167497 0.54415822
0.043920998 0.050140481 0.59812671
-0.037331946 0.075474091 0.55684924
-0.21407717 -0.12062604 0.56847686
0.04076479 -0.016674146 0.60113287
-0.15399431 -0.062950037 0.51527464
-0.10305378 -0.00027365374 0.5332883
0.045590322 0.058516413 0.60129756
-0.055948742 0.024440417 0.53432667
0.038253237 -0.017817605 0.59870565
-0.093465865 -0.041018777 0.53705853
-0.12218987 -0.041694514 0.52317804
-0.10435946 -0.040398803 0.52914429
-0.20687135 -0.099691749 0.60553175
0.043609515 0.049858313 0.5983628
-0.092165545 -0.030209145 0.47784448
0.04724839 0.046088953 0.60156476
-0.069966644 -0.037736651 0.54760808
-0.046663821 -0.021006105 0.55549681
0.040768739 0.060315106 0.59825188
0.0069816643 0.033130843 0.56974781
-0.13751082 -0.055569142 0.51557809
-0.17917392 -0.021602003 0.53490573
-0.15239237 -0.080296353 0.52782291
-0.12467331 -0.050611138 0.52034187
0.09762726 0.055675462 0.63989121
-0.12628502 -0.067525022 0.5299958
0.053362694 0.046098165 0.60721779
0.064496048 0.060383361 0.61526227
-0.12531246 -0.046050444 0.52201158
-0.20473434 -0.05220722 0.53573442
-0.16876012 -0.06566187 0.52334481
0.0036297182 0.040506545 0.56783664
-0.10220124 -0.037464447 0.52783042
-0.19416256 -0.073058687 0.54124606
-0.16141841 -0.0151942 0.53069401
-0.1936432 0.0056039956 0.53822982
0.098957315 0.054427989 0.64175534
-0.018629294 0.047187306 0.5536229
-0.15315227 -0.084689721 0.52842081
0.021779798 -0.023616932 0.59469277
-0.12102312 -0.041370112 0.52438414
-0.10171331 0.021627987 0.53379673
-0.090622902 -0.037791252 0.5393697
-0.17917904 -0.018983085 0.53129292
-0.084834032 -0.033231393 0.53986818
-0.083414033 -0.034878433 0.54417425
-0.17630534 -0.058088034 0.530586
-0.11373673 0.0056729843 0.52690107
0.071721002 0.058673572 0.62067622
-0.11073397 -0.044304367 0.52411425
-0.15446471 -0.034818809 0.52878183
0.065615371 0.037709981 0.6161108
-0.10920766 -0.018765779 0.53133047
-0.19426775 -0.083942696 0.53729486
0.064133257 0.059529129 0.61527812
-0.077479951 0.011596099 0.52694714
-0.13011107 -0.055194445 0.51780617
0.04844952 0.025058893 0.60289168
0.15426809 0.18988279 0.64361942
0.041523963 0.016154805 0.5985018
-0.15295322 -0.063434862 0.51964778
-0.19740558 -0.11906917 0.55151355
-0.19980977 -0.060901027 0.54289776
-0.15313545 0.016456356 0.54660255
-0.18969718 -0.10919594 0.54268968
-0.090456776 -0.037686441 0.53917468
-0.035265058 0.033179227 0.54183888
0.067356229 0.065513514 0.61727941
-0.049687088 0.023994587 0.53621244
-0.06112837 0.01416663 0.54381514
0.057578031 0.05295936 0.60952753
-0.070184425 -0.017861962 0.54265559
-0.15342949 -0.061843961 0.51489401
-0.10042134 0.010403481 0.5192554
0.094677195 0.089051075 0.63902807
-0.17191525 -0.021192567 0.53213578
0.12443624 0.11984957 0.66212118
-0.031731151 -0.031771936 0.55984628
-0.011747522 0.018177494 0.54774785
-0.00068544957 0.012339958 0.56040418
0.034866001 0.033082604 0.5912047
-0.12328409 -0.048928272 0.51725948
-0.036272813 -0.026094556 0.5610767
0.031706311 0.096147291 0.59656417
-0.094219282 -0.035312582 0.53716713
-0.10504678 -0.024404993 0.53484482
-0.13814043 -0.027452542 0.52779949
-0.096642099 -0.038215645 0.53636861
-0.15151162 -0.054924775 0.51935673
-0.039757721 -0.041931301 0.56563413
0.10773088 0.083358094 0.64442867
-0.04082863 -0.035835419 0.56839359
-0.1003262 -0.027291924 0.53344238
0.0028560415 0.01300756 0.56333828
0.13442855 0.18139733 0.64787203
0.078601591 0.031480383 0.62685275
-0.10677179 -0.043232728 0.5273971
-0.10402967 -0.038744979 0.53017336
-0.14258304 -0.054392885 0.51781774
0.024803463 0.051666763 0.58444101
0.037581172 0.013485093 0.59523249
-0.1691556 -0.064993359 0.52214432
-0.049508192 -0.029065086 0.53922141
-0.13844347 -0.035332959 0.52373892
-0.21355458 -0.11839855 0.56847346
0.14034939 0.075870939 0.67207402
0.13180283 0.081298284 0.6655516
-0.20421842 -0.123113 0.55735457
0.049259547 0.02963206 0.60334933
-0.14717191 -0.055537377 0.51844114
-0.15967186 -0.061185058 0.52012169
-0.10836493 -0.043973599 0.526923
0.067643479 0.065673053 0.6171062
-0.04191412 0.073721096 0.55547589
-0.012827178 0.016861171 0.55801016
0.070064202 -0.036134321 0.62170631
-0.10319093 -0.036826998 0.53159797
0.018026475 0.044211481 0.57900637
-0.1027687 -0.036531579 0.53106266
-0.0084843049 0.001015736 0.56264526
0.022270218 0.044832364 0.58185887
0.029958872 0.031335026 0.58786184
-0.035965748 0.070007943 0.55541497
-0.1016261 -0.03893958 0.52668077
-0.17034189 -0.066016927 0.52426106
-0.071755372 0.040741917 0.54084164
-0.11964455 -0.041240972 0.52461153
-0.036951639 -0.026621392 0.56177568
-0.12564762 -0.063584961 0.52896923
-0.1199441 0.020059058 0.53880459
0.020038392 0.097343683 0.58995974
0.057901055 0.053684056 0.60980779
-0.20071238 -0.12122762 0.55531096
-0.10306745 -0.023296867 0.53266835
0.032330107 0.01125709 0.59122378
0.048443023 0.058459837 0.60294509
-0.082676068 -0.03134368 0.54296005
0.016270678 -0.0253167 0.59482545
-0.029441763 -0.027957734 0.5646506
0.025840078 0.046392936 0.58517009
-0.19584674 -0.11380125 0.54908168
-0.13862102 -0.059354529 0.51776707
-0.046458814 0.026626471 0.53352463
0.15061405 0.18193984 0.6584003
0.016503975 0.14199996 0.58080393
0.0044100527 0.032106351 0.56755781
-0.0061093937 0.088042356 0.57266754
-0.097108096 -0.035037015 0.5348621
-0.17674614 -0.058495376 0.53138536
-0.091902301 -0.034782179 0.53726804
0.026485363 0.021282874 0.58538121
-0.012689767 -0.04265796 0.58031827
0.066699967 0.014220718 0.61792779
-0.1089602 -0.043985803 0.52489883
-0.064980932 0.022487383 0.53069103
-0.20033048 -0.05996396 0.54286593
-0.10188376 -0.038350467 0.54075521
0.037428498 0.053486928 0.59436017
0.047620963 0.084199436 0.60472971
0.0055048005 0.034026694 0.56834769
0.04376414 0.033576995 0.5983392
-0.16922519 -0.049652882 0.52959758
0.1472407 0.12627526 0.67907232
-0.096734412 0.012856353 0.52714193
-0.077618763 0.04827939 0.54310852
-0.1765132 -0.0203037 0.53378373
-0.091929354 0.013867356 0.52619845
0.080775864 0.062926061 0.62777221
0.12771446 0.078910887 0.6624912
-0.1197125 0.019880878 0.53647971
-0.15714237 -0.057961594 0.52261567
0.055994477 -0.032516565 0.60842431
-0.14483595 -0.0064231907 0.52770948
0.057857204 0.053658817 0.60983586
-0.18299848 -0.07243026 0.53078455
-0.1208069 -0.042122554 0.52623165
0.061029799 0.057735033 0.61251241
-0.050725468 -0.029650368 0.54046619
-0.16685762 0.018498711 0.53897023
-0.17854357 -0.070611417 0.52773398
0.054958012 0.00011286403 0.6116944
0.024736155 0.018924868 0.58515704
-0.17831177 -0.074459925 0.52217937
-0.0078972317 0.034699891 0.55856764
-0.078654751 -0.026201507 0.49626243
-0.074930929 0.022489551 0.53319639
0.047408268 0.056317341 0.60005325
-0.052297294 -0.045043148 0.56916183
0.01451226 0.0032901622 0.60914594
